# .PCD v0.7 - Point Cloud Data file format
VERSION 0.7
FIELDS x y z
SIZE 4 4 4
TYPE F F F
COUNT 1 1 1
WIDTH 1295
HEIGHT 1
VIEWPOINT 0 0 0 1 0 0 0
POINTS 1295
DATA ascii
-0.13458155 0.25574487 -0.022497503
-0.12424905 0.25489777 -0.022524847
-0.11314568 0.25657341 -0.02330374
-0.10536129 0.25634286 -0.02423274
-0.095940419 0.25404114 -0.02452134
-0.087112531 0.2517125 -0.026072292
0.085898161 0.251807 -0.027214861
0.096418113 0.25526831 -0.026323305
0.10614709 0.25598961 -0.02410569
0.11482907 0.25465783 -0.023066141
0.12426494 0.25447685 -0.023088276
0.13538349 0.25372955 -0.02311687
0.14738216 0.25524554 -0.023136932
0.15579253 0.25581017 -0.023153337
0.16572817 0.25660202 -0.024269437
0.17446606 0.25483143 -0.024892764
0.1838802 0.25273016 -0.025567768
0.19100754 0.25056675 -0.026066085
-0.16157061 0.26030508 -0.02390931
-0.15427469 0.2614021 -0.025978193
-0.14540294 0.262335 -0.027053861
-0.13480245 0.26230204 -0.024366796
-0.12332936 0.26175576 -0.026545037
-0.11647573 0.26071671 -0.025926931
0.1157037 0.2609345 -0.026335275
0.12543221 0.26220036 -0.025531074
0.1362076 0.26260713 -0.026541241
0.14364603 0.26236427 -0.025434073
0.15567337 0.26138431 -0.025695724
0.1625202 0.26023448 -0.026834486
-0.13733549 -0.16022106 -0.016784472
0.13739219 -0.16002712 -0.014585453
-0.15285179 -0.15427792 -0.014585827
-0.14514504 -0.15881231 -0.015948951
-0.13304344 -0.15980093 -0.017151186
-0.12472386 -0.15603925 -0.015692761
-0.11900393 -0.15098958 -0.015303423
0.12404826 -0.15548348 -0.014179823
0.13404955 -0.1595913 -0.015663011
0.14489414 -0.1585141 -0.014419913
0.15314892 -0.1536883 -0.015617692
-0.16024752 -0.14142857 -0.018481506
-0.15883119 -0.14580739 -0.01722849
-0.11588397 -0.1449274 -0.015182506
0.1159548 -0.14540018 -0.015589269
0.15835181 -0.14609295 -0.014691406
0.16019231 -0.14051807 -0.01639162
-0.16045009 -0.13542883 -0.015753262
-0.15966541 -0.13033023 -0.013683923
-0.11473747 -0.13368781 -0.014523561
0.11438412 -0.13412619 -0.01491905
0.1598223 -0.13139285 -0.015175536
0.16035046 -0.13592084 -0.014628376
-0.15726659 -0.1253446 -0.016116414
-0.12092255 -0.12092364 -0.01242725
-0.1174703 -0.12573083 -0.013086542
0.11669144 -0.12676316 -0.013319593
0.15725899 -0.1254604 -0.015708035
-0.15142904 -0.11860386 -0.014468998
-0.14496601 -0.11536179 -0.014696837
-0.13525283 -0.11423413 -0.013787316
-0.12472393 -0.11786549 -0.015047535
0.12524794 -0.1173643 -0.015295757
0.13449806 -0.11399097 -0.016130246
0.14361335 -0.11468896 -0.012816155
0.15177141 -0.11878187 -0.013012864
-0.056621257 -0.032851376 -0.014521859
-0.040552139 -0.030086618 -0.016167786
-0.033851892 -0.030734653 -0.016958524
-0.023441771 -0.030749235 -0.014990862
-0.016354144 -0.030745391 -0.014562409
-0.0053575318 -0.03073414 -0.015032467
0.0059878929 -0.030725015 -0.014983376
0.01422917 -0.030721815 -0.014212106
0.025245409 -0.030711755 -0.014423478
0.034372918 -0.030672688 -0.016091105
0.055819783 -0.032645136 -0.014965258
-0.056089651 -0.028576171 -0.015911641
-0.043336749 -0.026289744 -0.015741488
0.043184225 -0.026045887 -0.014795446
0.055992816 -0.028209917 -0.014318981
-0.044587914 -0.015320558 -0.015710987
0.04424262 -0.015198264 -0.016136007
-0.044593964 -0.0075283083 -0.015507694
0.02482621 -0.0036650321 -0.010542274
0.044235762 -0.0042548534 -0.015127258
-0.044603422 0.003733254 -0.015526836
0.024177536 0.0061007165 -0.010400763
0.044225808 0.0052411123 -0.016028401
-0.044609342 0.014306829 -0.014242513
0.02540989 0.010833039 -0.010200605
0.044218086 0.016198261 -0.015397602
-0.056782823 0.028854169 -0.015064274
-0.044530202 0.024557803 -0.015512405
0.044077232 0.025028547 -0.013613657
0.056014139 0.02917001 -0.015161145
-0.060056645 0.030278234 -0.017692776
-0.056223437 0.03346169 -0.015441984
-0.042144936 0.031407516 -0.01651228
-0.035381567 0.033039555 -0.01426024
-0.0252837 0.033098154 -0.015124594
-0.015428046 0.033106621 -0.015205897
-0.0048645651 0.033113793 -0.014882879
0.0050273458 0.033128884 -0.016377624
0.01491865 0.033133697 -0.015666906
0.025978059 0.033142217 -0.01554335
0.03475542 0.033118181 -0.014773259
0.041062504 0.031940881 -0.01463914
0.055334404 0.032609839 -0.015360258
-0.15085174 0.11867002 -0.01391884
-0.1453256 0.11614387 -0.01473655
-0.13603571 0.11485787 -0.015613212
-0.1267871 0.11756823 -0.015576424
0.1246708 0.11850315 -0.015790492
0.1351635 0.11514968 -0.015888402
0.14582597 0.11676803 -0.016324185
0.15096658 0.11943052 -0.013779305
-0.15665163 0.12466913 -0.014437247
-0.12169196 0.12108729 -0.014883696
-0.11714058 0.12725475 -0.015021992
0.11750793 0.12581332 -0.014611966
0.12060706 0.12169851 -0.015663965
0.15633036 0.12548172 -0.014660225
-0.1607859 0.13667035 -0.013913342
-0.15988278 0.13094586 -0.015092917
-0.11492914 0.13477637 -0.014731956
0.11421293 0.1359127 -0.016084542
0.15951551 0.13226134 -0.015525901
0.16022578 0.13795286 -0.015893372
-0.16057293 0.14142823 -0.014907386
-0.15905519 0.14650123 -0.014619873
-0.1158912 0.14500606 -0.01443083
0.11519496 0.14499067 -0.015402569
0.15848041 0.14639261 -0.015458185
0.16004074 0.14109315 -0.014116312
-0.15406781 0.15370518 -0.013836857
-0.14774747 0.1584952 -0.015180968
-0.12466425 0.15660159 -0.016224846
-0.11881697 0.15094852 -0.015320972
0.11850483 0.15172845 -0.016224761
0.1248734 0.15732256 -0.014765362
0.14674646 0.15896054 -0.016438296
0.15332307 0.15417679 -0.013769329
-0.14257574 0.16035512 -0.0160455
-0.13630007 0.16075784 -0.013718599
0.13418242 0.16076557 -0.016446747
0.14217518 0.16051562 -0.012940562
-0.14088848 -0.1600115 -0.0063942419
-0.13698584 -0.16023046 -0.0083641447
-0.15286678 -0.15271012 -0.0049575893
-0.14455152 -0.15669656 -0.0054532117
-0.136234 -0.1538941 -0.0036085136
-0.12585023 -0.15518335 -0.0056257588
-0.11927206 -0.15139596 -0.0070703076
0.11847452 -0.15032844 -0.0061042509
0.12612335 -0.15528531 -0.0055110976
0.13558726 -0.15479702 -0.00392754
0.14449961 -0.15540528 -0.0052588047
0.15254082 -0.15360904 -0.0063157114
-0.16007683 -0.14209947 -0.0059008934
-0.15496697 -0.14340448 -0.004312967
-0.14481531 -0.14488421 -0.0024823227
-0.13550158 -0.14525451 -0.0023235525
-0.12513557 -0.14496484 -0.0033477282
-0.11651062 -0.14326765 -0.0053709201
0.11717622 -0.14591292 -0.0066383346
0.12546889 -0.14450748 -0.002728354
0.13540837 -0.14504208 -0.0020691499
0.14437918 -0.14483877 -0.0031010227
0.15456769 -0.14543784 -0.0049617952
0.16013202 -0.14102954 -0.0080635473
-0.16048922 -0.135585 -0.0076664821
-0.15485378 -0.13585193 -0.0022469922
-0.14475389 -0.13521753 -0.0027544762
-0.13526969 -0.13455109 -0.0030737966
-0.12600131 -0.13435508 -0.0028822403
-0.11562884 -0.13583165 -0.0056488644
0.11463725 -0.13600515 -0.0068335864
0.12506257 -0.13458155 -0.0029117903
0.13563146 -0.13453716 -0.0038870068
0.14642629 -0.13517083 -0.0035808871
0.15441225 -0.13481425 -0.0036531491
0.16042612 -0.13562714 -0.0061300895
-0.15487142 -0.12484251 -0.0052061751
-0.14366141 -0.12513623 -0.0026610028
-0.13504702 -0.1247842 -0.0024197237
-0.1250032 -0.12573895 -0.0039473251
-0.11673803 -0.12729475 -0.0064232629
0.11745334 -0.12530127 -0.0072684917
0.12589736 -0.12603197 -0.0040854937
0.13451374 -0.12493889 -0.0021192606
0.14425956 -0.12671123 -0.0034190002
0.15470622 -0.12568495 -0.0058829011
-0.15207756 -0.11913021 -0.0065892981
-0.14444506 -0.11564849 -0.006015704
-0.13441744 -0.11579853 -0.0061462154
-0.12632607 -0.11772311 -0.0062204772
0.12577625 -0.11722505 -0.006524438
0.13554665 -0.11636057 -0.0044634622
0.14601165 -0.11759496 -0.0052541848
0.15104502 -0.11865053 -0.006321562
-0.056414228 -0.032463569 -0.0047169458
-0.036388312 -0.03051935 -0.0083128912
-0.023894735 -0.030550733 -0.0085064089
-0.014977472 -0.030644972 -0.0089151189
-0.0039895307 -0.030682296 -0.0086720586
0.0053395666 -0.030753478 -0.0089848423
0.016443754 -0.030745571 -0.0087176254
0.025061136 -0.030721676 -0.0084264232
0.035940994 -0.030564029 -0.0091053918
0.055873979 -0.03209468 -0.0049116807
-0.05697833 -0.028402964 -0.0049053514
-0.042406864 -0.023524281 -0.007766074
-0.035691891 -0.024437195 -0.0077855131
-0.025163826 -0.025835872 -0.0078158546
-0.015254606 -0.025326427 -0.0078358641
-0.005252636 -0.02421324 -0.0078532752
0.0049355463 -0.024523975 -0.0078777261
0.01533175 -0.025769716 -0.0079069976
0.027009485 -0.025028573 -0.0079299174
0.033670217 -0.025476564 -0.0079470538
0.042833742 -0.025201214 -0.0084637804
0.056156553 -0.028417373 -0.0041009672
-0.042851619 -0.01513985 -0.0080201533
-0.033629958 -0.014801754 -0.0077453204
-0.026276998 -0.014658884 -0.0077612693
-0.012579348 -0.015190866 -0.0077947183
-0.0047367276 -0.015217658 -0.0078125726
0.0041782595 -0.01486216 -0.0078310575
0.015190655 -0.01455051 -0.0078544794
0.023815172 -0.014686797 -0.0078745931
0.034512263 -0.01469162 -0.0078987675
0.042783264 -0.015747353 -0.0083491001
-0.043633059 -0.0039249999 -0.0083632842
-0.034924388 -0.0049368134 -0.0076964917
-0.023678452 -0.0051330901 -0.0077228104
-0.017278258 -0.0023469364 -0.0077243038
-0.0053982772 -0.0063637123 -0.0077698333
0.0044801617 -0.0057748053 -0.0077894125
0.014447892 -0.0037426751 -0.0078024757
0.02452305 -0.0049923314 -0.0082076192
0.034467231 -0.0051322831 -0.0078541441
0.043189708 -0.0043965844 -0.0085626198
-0.043024916 0.0053111482 -0.0080551272
-0.034437746 0.0037276391 -0.0076572718
-0.025072526 0.0051909145 -0.0076716202
-0.014308341 0.0053609959 -0.007695145
-0.0052692215 0.0059787584 -0.0077126902
0.0050436249 0.0037028613 -0.0077465749
0.013853497 0.0039786845 -0.0077651846
0.024330469 0.00465316 -0.0085455002
0.034596156 0.0051005078 -0.0078068073
0.042107038 0.0051336959 -0.0078435494
-0.04293374 0.016798468 -0.008070563
-0.03281793 0.013914733 -0.0076135276
-0.023944572 0.013956868 -0.0076333764
-0.015626686 0.015504041 -0.0076449616
-0.0037957777 0.014957129 -0.0076742205
0.0054817083 0.015841903 -0.0076910611
0.014179944 0.015619945 -0.0077117686
0.024249386 0.014813784 -0.0078975093
0.033777047 0.016072901 -0.0077539203
0.043077525 0.015709737 -0.0079317307
-0.056530282 0.028744938 -0.0043512485
-0.043536134 0.025497494 -0.0078123584
-0.035596412 0.026174298 -0.0075501702
-0.026030352 0.025586033 -0.0075745089
-0.01527563 0.026395243 -0.0075950362
-0.0046254541 0.023665836 -0.0076318085
0.0052933982 0.025104422 -0.0076475251
0.013072776 0.024303216 -0.0076688332
0.024452446 0.025299082 -0.0076899054
0.034918681 0.027227828 -0.0077045592
0.042720225 0.024387786 -0.0082160821
0.056607235 0.029027048 -0.0054410524
-0.055869848 0.032873813 -0.0057865516
-0.041743305 0.031651426 -0.0088141607
-0.035037339 0.032345336 -0.008023167
-0.026529545 0.031943519 -0.0079055391
-0.014741663 0.031958949 -0.0076869214
-0.0056437287 0.032776378 -0.0085086878
0.0045950757 0.032984659 -0.0081677614
0.016192418 0.032182574 -0.0080546699
0.025953669 0.032074921 -0.0080554094
0.036098644 0.033078175 -0.0082462728
0.042500079 0.030726511 -0.0088125011
0.056290764 0.033008404 -0.0050801635
-0.15147351 0.11909413 -0.0061240848
-0.1455213 0.11703052 -0.0047541796
-0.13543172 0.11665379 -0.0041938904
-0.12596497 0.11807791 -0.0054884031
0.12712269 0.11841941 -0.0049049128
0.13409388 0.11625169 -0.0054202653
0.14574999 0.11765678 -0.0048352238
0.15035042 0.11893765 -0.0080984058
-0.15567811 0.12546308 -0.0048301453
-0.14503086 0.12533453 -0.0025175037
-0.13522467 0.12399791 -0.0026925839
-0.12321598 0.12350588 -0.0031893717
-0.11773596 0.12770565 -0.0050345529
0.11746817 0.12578773 -0.0051607178
0.12304182 0.12504274 -0.0036289978
0.13446023 0.12450421 -0.0025155109
0.14452703 0.12653548 -0.0023617903
0.15409745 0.12464687 -0.0048562801
-0.16071081 0.1361682 -0.0052832384
-0.15473898 0.13465792 -0.0026119221
-0.14335972 0.13527317 -0.0019979915
-0.13468473 0.13544054 -0.0024661077
-0.12367427 0.13362047 -0.0026869464
-0.11576851 0.13515736 -0.00434396
0.11551791 0.13513236 -0.0043498208
0.12472491 0.13441902 -0.0025184816
0.13365018 0.13456303 -0.0023941831
0.14526342 0.13515739 -0.0018763921
0.15519029 0.13466072 -0.003679879
0.16013941 0.13632977 -0.0046564941
-0.16022408 0.14296791 -0.0027207271
-0.15534846 0.14517321 -0.0036876313
-0.14438368 0.14386263 -0.0018692072
-0.13455006 0.14507571 -0.0017401323
-0.1244835 0.14248946 -0.0026301506
-0.11659782 0.14488827 -0.0051812627
0.11643273 0.14547075 -0.0050328751
0.12630263 0.14563119 -0.0022066154
0.13564204 0.14505777 -0.001828161
0.1456282 0.14419121 -0.0017268423
0.15555806 0.14577611 -0.0039512194
0.16015694 0.14021748 -0.0079547912
-0.15416686 0.15321387 -0.0050487248
-0.14409208 0.15642898 -0.0028601899
-0.13398471 0.15672643 -0.0027618599
-0.12521087 0.15570675 -0.0051146061
-0.11856526 0.15041907 -0.0040806155
0.11884963 0.1521261 -0.0065586492
0.12525713 0.1556083 -0.0054894658
0.13626985 0.15509224 -0.002146234
0.14579825 0.15589096 -0.0038655624
0.15437807 0.1523784 -0.006791845
-0.14255668 0.16031729 -0.0064926161
-0.13652377 0.16070247 -0.0055929003
0.13331886 0.16072908 -0.0072318674
0.14226229 0.16048898 -0.007885579
-0.15089679 -0.15109362 0.0036334982
-0.1444924 -0.15288273 0.0061563086
-0.13613942 -0.15341747 0.0046285936
-0.12730922 -0.1525671 0.0068455925
0.12659541 -0.15166773 0.0064672004
0.13638656 -0.15413733 0.0054672132
0.14474629 -0.15286638 0.0058394051
0.15040837 -0.15125532 0.0026517124
-0.15390308 -0.14407578 0.0059095374
-0.14505641 -0.1447458 0.0051488923
-0.13493913 -0.1454286 0.0055565597
-0.12479953 -0.14527526 0.005778899
-0.11882903 -0.14189264 0.0054554781
0.11878943 -0.14220315 0.0060329461
0.12561838 -0.14518213 0.0039817858
0.13454038 -0.1450285 0.0048140865
0.14531919 -0.14430447 0.0036580705
0.15338749 -0.145381 0.0049804836
-0.15400469 -0.13548569 0.0050793928
-0.14615795 -0.13585161 0.0049003027
-0.13347974 -0.13371974 0.0060632443
-0.12439168 -0.13558464 0.0052233455
-0.11775744 -0.13553227 0.0059471694
0.11773191 -0.13500158 0.005953853
0.12500313 -0.13566165 0.0048237545
0.1339065 -0.13391984 0.0068245167
0.14628398 -0.13485286 0.0050231181
0.15368463 -0.13607666 0.0050488953
-0.15262169 -0.12602852 0.006508253
-0.14460829 -0.12460736 0.0031037293
-0.13531721 -0.1249123 0.0042961682
-0.12521228 -0.12640549 0.0068716584
-0.11494898 -0.12454481 0.0070272237
-0.10771386 -0.12168414 0.0049384213
0.10715394 -0.12117802 0.0064996192
0.11500476 -0.12514564 0.0053001544
0.12529129 -0.12592122 0.0066292752
0.13465242 -0.12477873 0.0043789712
0.14402905 -0.12606573 0.0043369317
0.15204281 -0.12606969 0.0058224113
-0.14290324 -0.11883821 0.0053891232
-0.13357672 -0.11744555 0.0052152365
-0.12489057 -0.11546823 0.003836036
-0.1137988 -0.11490279 0.0055654231
-0.10458041 -0.11589611 0.0052629807
-0.098150812 -0.11215255 0.0061207726
0.097305208 -0.11133886 0.0083102686
0.10396593 -0.11510833 0.0068824571
0.11490846 -0.11394848 0.0069981567
0.12516388 -0.11454943 0.0067258123
0.13422473 -0.11789498 0.0059038494
0.14386034 -0.11911065 0.0048286947
-0.12267571 -0.10809338 0.0067399903
-0.11633877 -0.10490219 0.0048234202
-0.10625634 -0.1048381 0.0031037054
-0.096652061 -0.10502476 0.0038439685
-0.087035961 -0.101418 0.0070977053
0.088453189 -0.10238604 0.0078855753
0.095391884 -0.10542384 0.0066001425
0.10480928 -0.10548529 0.0080633005
0.11361416 -0.10437486 0.0060993801
0.12261387 -0.10783033 0.0073650517
-0.11169866 -0.097072579 0.0059353262
-0.10576472 -0.093405493 0.0042297118
-0.093557723 -0.094482973 0.0052039949
-0.083965667 -0.095687449 0.004675935
-0.077473894 -0.091715455 0.005033006
0.07754004 -0.091729105 0.005620915
0.085058309 -0.095404394 0.0055390829
0.094237424 -0.094759725 0.0066071176
0.10518167 -0.094658807 0.0063062264
0.11189721 -0.097518407 0.0068220617
-0.10246774 -0.0879329 0.0044644079
-0.095205225 -0.082826614 0.0037744576
-0.085039057 -0.085033603 0.0033818425
-0.075081229 -0.084869005 0.0048006042
-0.067448616 -0.082034066 0.0072150514
0.069024071 -0.083611354 0.0069114128
0.074938871 -0.085821822 0.0059987726
0.085088789 -0.084670283 0.0063351649
0.094752014 -0.084966354 0.0066403821
0.10303183 -0.088836886 0.0057839709
-0.093171664 -0.078468494 0.0054200436
-0.084640354 -0.076425306 0.0048119794
-0.075292654 -0.074593112 0.0035436449
-0.06561026 -0.073736005 0.0039069792
-0.053923283 -0.073445022 0.0037047933
-0.045224428 -0.072619744 0.0049896697
-0.033536062 -0.07221517 0.0061005261
-0.025436819 -0.072396837 0.0064845388
-0.014296867 -0.071405999 0.0077621322
-0.0060335337 -0.071732581 0.0071673589
0.0045931297 -0.072048999 0.0066229687
0.014604641 -0.071721867 0.0071758181
0.024049336 -0.07158798 0.0075004539
0.03482873 -0.071652263 0.0075515807
0.04468267 -0.072292052 0.0067086946
0.055047631 -0.074137978 0.007600795
0.064121813 -0.076317459 0.0070945183
0.074899606 -0.075150087 0.0071618943
0.085191086 -0.07470157 0.0066186041
0.091363601 -0.077036195 0.0077640992
-0.08205767 -0.067076147 0.0063320757
-0.074469388 -0.063722029 0.0035002651
-0.066473678 -0.064526796 0.0043687196
-0.055557802 -0.065905482 0.0031703981
-0.044948101 -0.064505219 0.0031529292
-0.033081416 -0.063647389 0.0051228558
-0.024495637 -0.06651213 0.0030973807
-0.013277589 -0.064727224 0.0051446729
-0.0047302106 -0.066228531 0.0063199331
0.0049796593 -0.06509687 0.0078953961
0.014210126 -0.065152265 0.0074026235
0.024812156 -0.064763457 0.008149582
0.034727801 -0.064736336 0.0065152473
0.045130618 -0.064704739 0.0085755382
0.055568673 -0.065431498 0.0087093152
0.065297805 -0.064027108 0.0058424301
0.07499028 -0.064949483 0.0059047947
0.082190841 -0.066973396 0.0067981537
-0.074553229 -0.055264443 0.0047482965
-0.065387227 -0.055726379 0.0037011579
-0.053125601 -0.055372253 0.0058972356
-0.044211429 -0.056719001 0.0057557621
-0.034963433 -0.0567827 0.0057331957
-0.025039792 -0.056969453 0.0060295933
-0.014688193 -0.056420505 0.0049737436
-0.0061718486 -0.054752652 0.0045737834
0.0060597896 -0.053783447 0.0041647917
0.015901776 -0.057577111 0.0078450935
0.024928093 -0.056529723 0.007872262
0.034684014 -0.056463689 0.007604897
0.045130398 -0.056676019 0.0081180558
0.055166271 -0.054901797 0.0067788446
0.064955927 -0.055820979 0.0071090828
0.074094608 -0.055422246 0.0063780285
-0.072990298 -0.044568114 0.0056464602
-0.064629622 -0.046096824 0.0032831058
-0.055526495 -0.045080978 0.0048780497
-0.045198232 -0.041827392 0.0056124502
-0.034654487 -0.041531626 0.0049650562
-0.026659671 -0.041902736 0.0057374639
-0.016306287 -0.04184873 0.0061368942
-0.0050785751 -0.045867801 0.0042055259
0.0058039576 -0.044687063 0.0035543705
0.0160446 -0.041874591 0.0056028413
0.025167303 -0.042377371 0.0065000085
0.034696851 -0.044313654 0.0079203136
0.04543332 -0.044017959 0.0086175706
0.05482037 -0.044783652 0.0074566165
0.065465719 -0.044874955 0.008656445
0.072625399 -0.045031093 0.0056444188
-0.092035167 -0.033628415 0.0049358928
-0.084992029 -0.034627888 0.0044238442
-0.074280068 -0.035576534 0.0044332538
-0.064962715 -0.036341999 0.0033292386
-0.056354664 -0.033679638 0.0035959724
-0.045055676 -0.034915604 0.005897711
-0.034237321 -0.035730656 0.0044546761
-0.025057528 -0.03501603 0.0042565363
-0.016589021 -0.035679445 0.0032230332
-0.0048579206 -0.034124173 0.0046439967
0.005918026 -0.033750627 0.0045019439
0.014369968 -0.03333088 0.0031639771
0.027328452 -0.034386344 0.0045951037
0.034224257 -0.035591722 0.0045864633
0.045306854 -0.034889396 0.005540147
0.056080788 -0.034194082 0.0043708635
0.064660363 -0.035622094 0.0076664207
0.074858554 -0.034571849 0.0070582754
0.085310332 -0.034734797 0.0060314881
0.092175797 -0.033518411 0.0065921634
-0.092755079 -0.025462108 0.0056483094
-0.084440298 -0.025951818 0.0057836981
-0.074585415 -0.023849051 0.003409164
-0.064983413 -0.024246756 0.0033856099
-0.054772437 -0.026492214 0.004681767
-0.049666576 -0.029856391 0.0057277847
-0.024421642 -0.025034854 0.0050925105
-0.014958879 -0.024931051 0.0051486637
-0.0083817188 -0.029110001 0.006134931
0.0090461681 -0.028503621 0.0060027484
0.014987146 -0.024889262 0.0053424588
0.024435591 -0.024612403 0.0061698691
0.055171862 -0.027447585 0.0045488887
0.06547869 -0.024081094 0.003091601
0.075536266 -0.026619511 0.0045442074
0.084107183 -0.026050881 0.005382421
0.093060367 -0.025041528 0.0054572523
-0.09331432 -0.012994803 0.0056227804
-0.084633894 -0.014054476 0.0051843054
-0.075799294 -0.014022131 0.0034576461
-0.063181333 -0.014393701 0.0044243066
-0.057253841 -0.017504387 0.0051830504
-0.024567604 -0.014724588 0.0055761589
-0.017168181 -0.015760528 0.0056193019
0.016457722 -0.014417795 0.0048274752
0.024367401 -0.01467219 0.0050901365
0.057365764 -0.017374929 0.0062195705
0.064282551 -0.015076756 0.0037608473
0.074993767 -0.015473028 0.0031101443
0.085357592 -0.014916294 0.0058553801
0.09261062 -0.017228017 0.0066496078
-0.092474222 -0.0052306578 0.0055921394
-0.084703125 -0.0034956806 0.00482242
-0.073752895 -0.003407886 0.0035024357
-0.063150145 -0.0068190433 0.0039986568
-0.055112019 -0.0048135249 0.0050239768
-0.045606311 -0.0039633508 0.0049653817
-0.035268433 -0.0047686193 0.0065421769
-0.02606751 -0.0057883305 0.0054428182
-0.016447028 -0.0060718637 0.0056981649
0.016676994 -0.0056922208 0.0047666831
0.026277717 -0.0052091572 0.0052712457
0.035844032 -0.0047787814 0.0054915664
0.046080224 -0.0039808569 0.0043840413
0.055730585 -0.0044678729 0.0057073855
0.063345037 -0.0067548202 0.0038055684
0.073459134 -0.0030271979 0.0031715916
0.085335463 -0.0039552203 0.004579484
0.093142197 -0.0047712834 0.0052888049
-0.093219854 0.0050561586 0.0045086788
-0.084739253 0.0042339405 0.0051090368
-0.075359844 0.0048289881 0.0035443858
-0.063064173 0.0060935174 0.0047958549
-0.054041632 0.0053865029 0.0042081811
-0.045163207 0.0045627672 0.0055228961
-0.033979774 0.0040602814 0.005211547
-0.025784865 0.0064708865 0.0042248867
-0.01639515 0.0048966608 0.0052434355
0.016166456 0.0051871198 0.0053113853
0.026595965 0.0042995652 0.0035939757
0.033259541 0.0047176047 0.0056277588
0.045263823 0.0045939512 0.0055972529
0.054977383 0.0043685688 0.0054701958
0.064971596 0.0060762931 0.0032331301
0.074554779 0.0052880459 0.0032077886
0.084688939 0.0039598923 0.0036319692
0.092849791 0.004186172 0.0056785406
-0.093692027 0.01545317 0.0060218815
-0.083848052 0.015013123 0.0065853307
-0.075598866 0.015058637 0.0035925384
-0.063735239 0.01504431 0.0035754917
-0.058193713 0.017002262 0.006027136
-0.024875347 0.014681648 0.0049858605
-0.016640663 0.01551192 0.0056974334
0.017164357 0.015690161 0.0045632441
0.024729697 0.015920242 0.0059563462
0.058316968 0.016307458 0.0055271303
0.063152857 0.014757263 0.0036327743
0.075809039 0.014941974 0.003249896
0.08367683 0.014192182 0.0051903091
0.092902511 0.015096506 0.0059173745
-0.093247056 0.025306826 0.0060395654
-0.08348082 0.026477631 0.0050462778
-0.073855616 0.024381204 0.0036319962
-0.065469272 0.02543446 0.0036179707
-0.05473901 0.027282011 0.0044702156
-0.025048932 0.024705321 0.0056295185
-0.014973624 0.024145296 0.0053672167
-0.0086825881 0.029633349 0.0055991039
0.0085919295 0.029610716 0.0052279718
0.015362109 0.02373396 0.0066987574
0.024550783 0.025780773 0.0055943299
0.055430591 0.026108978 0.0039085769
0.065303952 0.024210121 0.003316798
0.074789509 0.024862332 0.0032984009
0.085010976 0.026158597 0.0049726623
0.092942283 0.025038276 0.0062128892
-0.092608064 0.033814508 0.0068868445
-0.085542768 0.035500545 0.0056085396
-0.074584872 0.035056885 0.0042481478
-0.066106744 0.034157071 0.0036600074
-0.055849623 0.033787362 0.0034787653
-0.045461826 0.034725048 0.0064273817
-0.034467086 0.035875607 0.0057857749
-0.026574103 0.034036785 0.0048826449
-0.014576388 0.03528877 0.0035488463
-0.0053263656 0.033704832 0.0051265755
0.0038374141 0.035192315 0.0047125579
0.015788391 0.034431294 0.0034762465
0.025760405 0.035894133 0.004811387
0.035530493 0.035736356 0.0051124585
0.046558149 0.034704149 0.0045237998
0.05539953 0.033148564 0.0035009994
0.06345959 0.03534792 0.0033728287
0.075570531 0.035234492 0.0045732288
0.085097544 0.034607776 0.005259614
0.092054248 0.033060875 0.0062208464
-0.07233832 0.043743741 0.0048218151
-0.065785684 0.046459641 0.0037165626
-0.0542702 0.043874703 0.0047810106
-0.046470467 0.042312048 0.0054913703
-0.035063241 0.042643823 0.005694909
-0.025821432 0.042380556 0.0054890183
-0.01524918 0.042525522 0.0066961469
-0.0059165708 0.044956837 0.0048392364
0.0048775575 0.046159077 0.0049344627
0.013532385 0.042274959 0.0045327088
0.023987368 0.042123184 0.0060233963
0.032911319 0.041810494 0.0045819702
0.045551892 0.042471599 0.007050781
0.054176211 0.044778123 0.0062872698
0.063448817 0.045678981 0.0034209269
0.07301937 0.045448229 0.0062251138
-0.074785531 0.054887593 0.0064600683
-0.063517325 0.054688811 0.0037497459
-0.05462829 0.054584056 0.0053910241
-0.04449816 0.057886019 0.0047997865
-0.033798963 0.056807753 0.006355131
-0.024288706 0.057470348 0.0067434809
-0.014517969 0.056958348 0.0058819326
-0.0037803969 0.054728605 0.003839165
0.0036492017 0.054316055 0.0042453399
0.015039108 0.056891471 0.0064298729
0.024084736 0.05770551 0.0049929451
0.033256989 0.056758665 0.0051411898
0.04391069 0.056978092 0.0062688533
0.055339895 0.054446369 0.0044849175
0.063906617 0.054402042 0.0034604785
0.073522642 0.053924669 0.0051997518
-0.082732603 0.067656085 0.0062023923
-0.076576665 0.062121119 0.0051897066
-0.065952651 0.062909588 0.0047096228
-0.055231251 0.064656124 0.0037774025
-0.044587322 0.06538596 0.0037567604
-0.034190822 0.065739043 0.0053008939
-0.023277039 0.064420633 0.0037041048
-0.014102188 0.065500528 0.0056293327
-0.0025668133 0.066615641 0.003667579
0.0037343362 0.065163203 0.0036465591
0.014414863 0.065712593 0.0045468821
0.02491021 0.065666981 0.0036009953
0.034697037 0.065042049 0.0051487801
0.046650026 0.062449537 0.0035369098
0.0531202 0.06599208 0.0035387904
0.064919963 0.063722767 0.0045287879
0.076078124 0.065121196 0.0047450592
0.081069291 0.066581458 0.0044766348
-0.091107585 0.076429874 0.0096969306
-0.085345522 0.074314244 0.0050848974
-0.078164212 0.076830156 0.0056335777
-0.064094342 0.074263327 0.0040034363
-0.055565648 0.074323416 0.0052779522
-0.044636346 0.072838701 0.004420381
-0.035398446 0.072487719 0.0062744999
-0.02623222 0.072798364 0.0062470566
-0.014454488 0.072598331 0.0048633795
-0.004708753 0.072633021 0.0060133925
0.0059230225 0.0721839 0.0058017625
0.014082504 0.072544284 0.0057868818
0.023022626 0.072369762 0.0049996711
0.034727119 0.072781414 0.005266598
0.043967035 0.072182149 0.0048362482
0.055816513 0.074693628 0.0046800086
0.064471364 0.075871296 0.003996172
0.075802781 0.076442875 0.004110123
0.085539304 0.075336143 0.0043763663
0.092536263 0.078721263 0.0057798857
-0.10234168 0.08794073 0.0060157017
-0.095319383 0.083757177 0.0054668784
-0.084709667 0.084896363 0.0040780609
-0.07488817 0.085227758 0.0053750733
-0.066515245 0.080615334 0.0062594763
0.066889517 0.082311593 0.0062458208
0.075837083 0.084316142 0.0052874265
0.08496432 0.084663875 0.004112842
0.094832405 0.084675871 0.0044322968
0.10157885 0.087519288 0.0059262053
-0.11335365 0.098642915 0.0081971688
-0.10583661 0.094875686 0.0048513007
-0.094610594 0.09392295 0.0047644242
-0.084061809 0.096617699 0.0050754403
-0.078295358 0.092648759 0.0069849859
0.078640267 0.093022779 0.0060166172
0.085373342 0.094984479 0.0041246219
0.09382388 0.093827374 0.0048145331
0.10588223 0.094999634 0.0052174744
0.11271293 0.09882459 0.0054924968
-0.12160081 0.10711817 0.0068751723
-0.11492432 0.10635067 0.0046974588
-0.10555407 0.10420597 0.0040751831
-0.095012777 0.10493484 0.0046427473
-0.087409742 0.1016764 0.0065483488
0.086293042 0.10149387 0.0057328963
0.094994023 0.10669563 0.0048307148
0.1041601 0.10367843 0.0035989052
0.11584111 0.10562547 0.0043395301
0.1219219 0.10812327 0.0068465499
-0.14183848 0.11880602 0.0073170811
-0.13493225 0.11751278 0.005997092
-0.12413006 0.1137645 0.0050905137
-0.1146356 0.11365822 0.0044570565
-0.10476299 0.11670181 0.0050449506
-0.098784611 0.11154865 0.0040941034
0.098739542 0.11403668 0.0068772244
0.10411136 0.11630777 0.0049939142
0.11493421 0.11415314 0.005512076
0.12673557 0.11485209 0.0055811461
0.13487579 0.11858834 0.0053233691
0.14341286 0.11954062 0.0087730512
-0.15287758 0.12697186 0.0055349111
-0.14434165 0.12576926 0.0033478108
-0.13559949 0.12526934 0.0038840536
-0.1266111 0.12618868 0.0037046189
-0.11407208 0.12548156 0.0051229163
-0.10739092 0.12197669 0.0070224628
0.10727521 0.12228352 0.0062607056
0.11512478 0.12491198 0.0042175306
0.12516075 0.12480964 0.0036248623
0.13581286 0.12409947 0.0037588764
0.1443271 0.12550406 0.003891333
0.15260902 0.12666589 0.0071682506
-0.15313378 0.13558733 0.0040879431
-0.14585242 0.13482153 0.0041771843
-0.13432436 0.13341744 0.0047170008
-0.12480367 0.13532394 0.0037999104
-0.11750563 0.13258289 0.0052160486
0.11742878 0.13441491 0.0047323056
0.12512395 0.13566232 0.003775845
0.13294134 0.13346401 0.0045360089
0.14540558 0.13548191 0.0043976675
0.15424705 0.13596658 0.0049615349
-0.15417352 0.14463323 0.005136854
-0.14442913 0.14521198 0.003379096
-0.134252 0.1454775 0.0038935649
-0.12560792 0.14499138 0.0036516157
-0.11910778 0.14229797 0.0074188728
0.11826237 0.1418511 0.0070124604
0.12446944 0.14563285 0.0041314666
0.13385417 0.14468747 0.0045477394
0.14376619 0.14317904 0.0041126497
0.15328506 0.14393185 0.0056233364
-0.15108915 0.15159926 0.0051047918
-0.14399903 0.15309681 0.0043034917
-0.13553166 0.15387869 0.0046373387
-0.12603363 0.15261003 0.0058723809
0.1262362 0.15307322 0.0064960038
0.13602087 0.15384117 0.003603226
0.14329146 0.15378425 0.0040894947
0.15078928 0.1515874 0.0065438058
-0.13873106 -0.1409775 0.012255711
0.13565646 -0.14048555 0.012180467
0.14008038 -0.14011735 0.011924385
-0.15399955 -0.13181664 0.010026039
-0.14138238 -0.13652854 0.012285079
-0.13450855 -0.13533807 0.013028327
-0.12685917 -0.13250323 0.012321905
0.12597951 -0.13069157 0.0125169
0.13373198 -0.13529922 0.012901109
0.14108589 -0.13799892 0.012710508
-0.15169087 -0.12688175 0.010043784
-0.14504102 -0.12590106 0.010033331
-0.13279322 -0.12576778 0.011374223
-0.12551375 -0.12552534 0.01226853
-0.1179268 -0.12283741 0.01299643
0.11686645 -0.12203822 0.011878727
0.1247732 -0.12516361 0.012655973
0.13345924 -0.12717886 0.012012567
-0.13516058 -0.11880185 0.010044062
-0.12301419 -0.11589036 0.011755297
-0.11549595 -0.11422877 0.012092459
-0.10772228 -0.1130411 0.011244008
0.10750557 -0.11259881 0.012501496
0.11607281 -0.11461442 0.013659894
0.12304197 -0.11788677 0.012521249
-0.12040928 -0.10844409 0.010058933
-0.11397287 -0.10616216 0.011858537
-0.10549351 -0.10533368 0.010991688
-0.095646948 -0.10337044 0.010381377
-0.08998441 -0.10204985 0.010019973
0.097437538 -0.10263602 0.012869824
0.10474113 -0.10534582 0.012844306
0.11262426 -0.107576 0.012558191
-0.11127295 -0.097919896 0.010087303
-0.1037676 -0.096997753 0.010744896
-0.094334111 -0.095539242 0.011616979
-0.087132856 -0.096360743 0.010281228
-0.077974267 -0.090677716 0.010045777
0.087938607 -0.09268593 0.01217677
0.095955253 -0.094590776 0.013000202
0.10294048 -0.097594835 0.012287183
-0.10048048 -0.088640131 0.010106046
-0.093890078 -0.086720407 0.010801611
-0.083513983 -0.083253339 0.013024526
-0.077393502 -0.083493471 0.012407806
-0.060943961 -0.084670998 0.01574914
-0.05513734 -0.086021394 0.015293426
-0.047571596 -0.086118855 0.015749646
0.078320533 -0.082032345 0.015769633
0.084508032 -0.084875867 0.013493735
0.092476696 -0.087368317 0.012811631
-0.091472104 -0.078578897 0.010132558
-0.083303392 -0.076232687 0.012998889
-0.076261282 -0.076713569 0.013333799
-0.062782086 -0.074931704 0.013542243
-0.055614091 -0.074902773 0.011885345
-0.045080367 -0.074098341 0.01317834
-0.034935612 -0.07221172 0.014170513
-0.025276285 -0.072062545 0.013079147
-0.015971215 -0.07258568 0.016758325
-0.0036700736 -0.072570369 0.015647311
0.0070207422 -0.072562084 0.015757855
0.015075623 -0.072553188 0.015272109
0.024483841 -0.072510488 0.014738678
0.034545496 -0.072220705 0.013910998
0.044253603 -0.072244383 0.015028163
0.053491142 -0.072518162 0.014546511
0.077363998 -0.077630334 0.014038121
0.0820648 -0.077737264 0.014578679
-0.081197217 -0.066347048 0.010165164
-0.073038965 -0.064615071 0.010155949
-0.062993951 -0.065592498 0.013314238
-0.055931896 -0.065006696 0.010886667
-0.044674724 -0.064773381 0.010091101
-0.03512235 -0.06486173 0.010069117
-0.025891945 -0.064759955 0.010048738
-0.017334158 -0.065376662 0.010026521
-0.0066077737 -0.063035332 0.010013202
0.028226987 -0.06978409 0.019061159
0.038339134 -0.069776148 0.019148761
0.056663413 -0.064766899 0.015196706
-0.072620623 -0.054340541 0.014141726
-0.064972237 -0.0557172 0.012709357
-0.055801019 -0.055182215 0.010160876
-0.044635996 -0.055054113 0.010136249
-0.034138244 -0.054093599 0.010116998
-0.023731878 -0.056024719 0.010084502
-0.01560711 -0.055789039 0.010067252
-0.004089273 -0.054377899 0.010047791
0.0057538031 -0.05455704 0.010024708
0.012877502 -0.054137748 0.010010561
0.022169463 -0.051151041 0.01000347
0.059523307 -0.059717447 0.014686774
0.064726278 -0.056645393 0.016614046
0.072362296 -0.052839734 0.014516576
-0.072499894 -0.045029096 0.013165919
-0.063906476 -0.04525945 0.010225385
-0.055433504 -0.045221657 0.010199083
-0.045080844 -0.042876396 0.01019393
-0.035149194 -0.044333391 0.010161793
-0.02512533 -0.044567838 0.010140975
-0.015135979 -0.045017425 0.010116308
-0.0029773319 -0.046039417 0.0100841
0.0039019415 -0.045889724 0.010069239
0.015769379 -0.043568302 0.010053229
0.024736146 -0.045941837 0.010021923
0.034776602 -0.0410637 0.01002194
0.040300101 -0.04009179 0.010013989
0.0727759 -0.044709992 0.017337034
-0.091233008 -0.032592993 0.01034613
-0.083107352 -0.034088753 0.010320798
-0.073647656 -0.034216832 0.01190866
-0.064530335 -0.034839734 0.010275297
-0.054495864 -0.035344943 0.010242573
-0.044549704 -0.033970512 0.010228598
-0.034998696 -0.035112489 0.010207293
-0.024988273 -0.035029676 0.010185064
-0.014428461 -0.035366032 0.010159642
-0.0041533131 -0.036087975 0.01013308
0.0046239584 -0.03526077 0.010117089
0.01525484 -0.034045003 0.010098728
0.02405028 -0.034785867 0.010075402
0.035201676 -0.036368165 0.010042863
0.04521472 -0.036163628 0.010021172
0.052146558 -0.033252526 0.010019058
0.062006682 -0.030713886 0.010008597
0.072762422 -0.034741119 0.015052184
-0.093200848 -0.021576568 0.010401845
-0.084513351 -0.02315774 0.010366584
-0.073450968 -0.024836458 0.012593531
-0.06535583 -0.02476627 0.010324047
-0.054528262 -0.02550819 0.010296136
-0.044562683 -0.022423908 0.010287976
-0.035166886 -0.026213735 0.010249106
-0.024144305 -0.024382832 0.010232711
-0.015729854 -0.026007468 0.010196991
-0.0042408477 -0.024384534 0.010187746
0.0053937742 -0.024801472 0.010162021
0.015037685 -0.026527433 0.010134204
0.024197957 -0.024018705 0.010125187
0.034426108 -0.02573774 0.010094081
0.045249954 -0.02606922 0.010068086
0.056417104 -0.026170133 0.010042385
0.064256951 -0.024516948 0.010032353
0.073209666 -0.024801223 0.011970247
0.081833497 -0.021180242 0.010008188
-0.092146225 -0.016245997 0.010424238
-0.087084681 -0.014719001 0.010419931
-0.074523523 -0.015082418 0.012648885
-0.065367453 -0.01595762 0.010365082
-0.055767067 -0.013602828 0.010354335
-0.044241823 -0.014687784 0.010323258
-0.035106979 -0.015047407 0.010300955
-0.024646178 -0.01509693 0.010267389
-0.017216902 -0.015172246 0.010246077
-0.0051650843 -0.014876403 0.01023409
0.0043944148 -0.014596518 0.0102138
0.01582313 -0.013826106 0.010191568
0.02446356 -0.015217485 0.010165581
0.035347871 -0.015183678 0.01014113
0.04471584 -0.015450375 0.010118723
0.055851199 -0.014793875 0.01009662
0.06507206 -0.015005704 0.010074791
0.073322885 -0.015138254 0.011896882
0.086525567 -0.015660899 0.010023285
0.093300164 -0.011833237 0.010025755
-0.092053257 -0.00342835 0.010483694
-0.084347829 -0.0039228341 0.010464007
-0.073232196 -0.0052303053 0.012335406
-0.065283246 -0.0053278725 0.010414393
-0.053873472 -0.0035623675 0.01039682
-0.044604301 -0.0050880816 0.010368769
-0.035012979 -0.0050588432 0.010347246
-0.024506856 -0.0047086305 0.01032514
-0.015767667 -0.0048724879 0.010304622
-0.0044285133 -0.0067931022 0.010270044
0.0064217253 -0.0049281395 0.010254221
0.016412968 -0.0052076438 0.010230349
0.025577003 -0.0046395925 0.010212301
0.035493091 -0.0049738637 0.010188337
0.044692174 -0.0037116329 0.010167597
0.053598743 -0.0039223293 0.010152319
0.065527342 -0.0038590566 0.010125665
0.074349687 -0.0054320283 0.011592264
0.084807143 -0.0049567637 0.010076971
0.09243229 -0.0047062025 0.01006087
-0.091253176 0.0053814715 0.010522921
-0.084158368 0.0047160424 0.010503762
-0.072979577 0.0041325791 0.012064967
-0.064142287 0.005570333 0.010462515
-0.053943951 0.0040673506 0.010427709
-0.044819899 0.0023729471 0.010403991
-0.033996593 0.0037530961 0.010376341
-0.023933116 0.0043110847 0.010365823
-0.014370848 0.0041158544 0.010334539
-0.0039292783 0.0047994922 0.010322893
0.0034139887 0.0050772601 0.010307583
0.015337481 0.0048332475 0.010279495
0.024579596 0.0062592798 0.010265266
0.034625757 0.0041512693 0.01023127
0.045768294 0.0041145086 0.010207412
0.055038016 0.0038895789 0.010185424
0.064518608 0.0044509443 0.010166603
0.073160701 0.0058403257 0.013012154
0.086626761 0.0058886409 0.010123341
0.092488214 0.0071135508 0.010115819
-0.092134394 0.016915193 0.010479464
-0.085464872 0.014358138 0.010551635
-0.074595146 0.015867945 0.01291818
-0.06527514 0.014707764 0.010503104
-0.05594705 0.016723789 0.010495913
-0.046069678 0.015565817 0.010468198
-0.034920808 0.014289681 0.010437082
-0.02354704 0.015462789 0.010416854
-0.01573169 0.016218508 0.010402719
-0.0057109799 0.01497585 0.010374309
0.0043653338 0.015629131 0.010354568
0.015682925 0.014494935 0.010311743
0.024289412 0.014056494 0.010302215
0.035086241 0.014873876 0.010281644
0.045610163 0.01462407 0.010256704
0.05417132 0.015912578 0.01024336
0.064349517 0.015481106 0.010218347
0.073747858 0.014261491 0.01159119
0.084557116 0.013482685 0.010145601
0.091641508 0.016624041 0.010162028
-0.092599481 0.023003835 0.010608046
-0.084368415 0.024504669 0.010574493
-0.073784657 0.025629524 0.012797631
-0.064682655 0.024698703 0.010552797
-0.055090342 0.025275664 0.010520503
-0.04559692 0.025667036 0.010514145
-0.034076031 0.025010714 0.010485073
-0.024669247 0.025429806 0.010465789
-0.016542124 0.025083043 0.010445816
-0.0055111842 0.024692252 0.010419084
0.0035852692 0.025541129 0.010391321
0.01569437 0.026080988 0.010377613
0.02478873 0.024654778 0.010330344
0.034719598 0.025496509 0.010331903
0.043979108 0.024002597 0.010304047
0.05530953 0.025939913 0.010273634
0.066185258 0.024184629 0.010254716
0.073632762 0.025285026 0.011773788
0.084912345 0.025272567 0.010211525
0.091330729 0.02127992 0.010184411
-0.091096587 0.034243036 0.010503734
-0.086297572 0.03399092 0.010608758
-0.073884517 0.035330258 0.013321478
-0.065079167 0.035075106 0.010601992
-0.054846849 0.035402726 0.01058038
-0.046730503 0.035955369 0.010564609
-0.033923399 0.034803227 0.010505863
-0.025247257 0.035519376 0.010502444
-0.014963951 0.035195615 0.010489321
-0.004857921 0.035089541 0.010466005
0.0048075002 0.0342138 0.010440107
0.015435804 0.035522465 0.010422165
0.024043439 0.035859454 0.010404265
0.035902005 0.0382194 0.010388445
0.045383219 0.035581477 0.010354748
0.054527204 0.035371523 0.01033313
0.065668181 0.035557836 0.010308827
0.07360734 0.034819599 0.012206266
0.086296871 0.03347823 0.010252517
-0.072263815 0.045207251 0.011995451
-0.065053307 0.045366764 0.010649833
-0.054834645 0.044055101 0.010620628
-0.044294227 0.045264065 0.010598715
-0.035037775 0.043525752 0.010538379
-0.024332367 0.043221742 0.010547839
-0.014344354 0.044926617 0.010503872
-0.0050433544 0.04575187 0.010516047
0.0047925184 0.043754179 0.010484549
0.015517358 0.043309707 0.010458247
0.024402367 0.044731896 0.010444791
0.036310066 0.041923217 0.010404771
0.044782363 0.043342147 0.01039225
0.055295326 0.044703349 0.010364713
0.064816974 0.045439065 0.010356746
0.072535358 0.046575427 0.012844869
-0.072743177 0.053737916 0.013079011
-0.065081462 0.05543479 0.013448899
-0.055964984 0.054793488 0.010648333
-0.045738522 0.055569153 0.010653649
-0.03415801 0.056413073 0.010631426
-0.025552308 0.056373816 0.010611813
-0.01479687 0.057058562 0.010590713
-0.0041468223 0.055547908 0.010559626
0.0054814797 0.056070924 0.01052882
0.014923496 0.056649584 0.010463639
0.024015211 0.055716686 0.010463693
0.034022875 0.055898521 0.01045605
0.04511299 0.056446843 0.010433672
0.056555141 0.054400064 0.010417107
0.064756855 0.055236246 0.013160951
0.072165057 0.054286506 0.01322906
-0.081403241 0.068485677 0.010794396
-0.074973613 0.066358164 0.010769964
-0.064909682 0.064852834 0.010709377
-0.055198126 0.065157495 0.011879684
-0.04418496 0.064860888 0.010693397
-0.034139495 0.065369934 0.010616939
-0.026320703 0.065773316 0.010657307
-0.015184581 0.064543419 0.010604574
-0.0057483427 0.064861186 0.010606587
0.0055144271 0.065930389 0.010586138
0.015132653 0.065351054 0.010553034
0.024427598 0.065043971 0.010539276
0.035584848 0.064729296 0.010484306
0.045207318 0.06447719 0.010489705
0.055797976 0.065225311 0.012272797
0.064723477 0.06505242 0.010448251
0.076190643 0.064262979 0.010418638
-0.091673374 0.078441724 0.010541766
-0.083235785 0.076868087 0.013501573
-0.075724766 0.076102279 0.012936738
-0.065088339 0.075947106 0.010792275
-0.053303059 0.073044188 0.013572994
-0.045374274 0.072440319 0.012410213
-0.03455605 0.072759993 0.012253989
-0.025283443 0.072629996 0.013701854
-0.013930642 0.072105289 0.011934042
-0.0049481485 0.072206475 0.012040644
0.0038234976 0.072987951 0.014344954
0.015025915 0.072453901 0.013606541
0.023700595 0.072700903 0.013043347
0.035111811 0.07245931 0.013005592
0.044597641 0.07249251 0.012859766
0.053406678 0.072491638 0.01366723
0.065412872 0.075415783 0.010494937
0.076088086 0.076499172 0.012736694
0.08392188 0.077715062 0.012933481
0.093769521 0.079668269 0.010062495
-0.10010247 0.087450475 0.010924904
-0.093249641 0.087089702 0.011935626
-0.08352606 0.084005423 0.013301557
-0.076096706 0.083524182 0.013222262
0.067848176 0.080921493 0.010515086
0.077377364 0.084302701 0.012782025
0.08352337 0.083141424 0.013882446
0.09390752 0.086447284 0.011649399
-0.11168665 0.098042883 0.011000454
-0.10364516 0.097230434 0.012122602
-0.095027044 0.094746247 0.012661412
-0.086828098 0.093669489 0.011929691
-0.07788302 0.092435583 0.010524115
0.078441031 0.093780488 0.010414734
0.08708816 0.093401901 0.012049194
0.095960543 0.094757318 0.01169299
0.10423715 0.096693382 0.010955562
-0.12162092 0.10734361 0.011045067
-0.11429507 0.10622854 0.012290034
-0.10490591 0.10499975 0.011992946
-0.095361404 0.10368878 0.0114487
0.089305244 0.1037279 0.010494076
0.097274438 0.10305662 0.012398309
0.10432617 0.10554706 0.011984633
0.11240014 0.10599864 0.011399971
0.12172247 0.10779724 0.010363886
-0.14416526 0.11936725 0.010528303
-0.13608681 0.1176429 0.010859935
-0.12432536 0.11638467 0.011943081
-0.11513188 0.11458734 0.013048357
-0.10656786 0.11420097 0.011844338
-0.097248606 0.11114562 0.010801725
0.096673898 0.11095224 0.010425154
0.10650711 0.11426549 0.01172328
0.11436939 0.11512306 0.011792412
0.1234837 0.11550844 0.011265394
0.13420764 0.11849961 0.010540048
0.14076568 0.11920764 0.010528548
-0.15282913 0.12845431 0.011200435
-0.1435581 0.12542529 0.011158296
-0.13363992 0.12582856 0.011802805
-0.12494268 0.12445944 0.012619326
-0.11678707 0.12449583 0.011799807
-0.10793139 0.12140507 0.010777517
0.10898252 0.12437207 0.010540146
0.11552276 0.1234835 0.011536879
0.12517615 0.12482609 0.011835207
0.13401987 0.12693036 0.011259802
0.14415407 0.12567791 0.01055099
0.1522501 0.12762146 0.010460328
-0.15362865 0.13234574 0.011254881
-0.14432509 0.13507085 0.011803116
-0.13540234 0.13379623 0.012582291
-0.12717162 0.13369027 0.011478331
-0.11821469 0.13247286 0.011175462
0.11796682 0.13633765 0.010554563
0.12627442 0.13327315 0.011530259
0.135298 0.13466667 0.013233592
0.14302868 0.13606107 0.011987805
0.15341173 0.13357498 0.010566812
-0.15370724 0.14405464 0.011297746
-0.14475192 0.14472288 0.011312983
-0.13594723 0.145558 0.011828521
-0.12541616 0.14517859 0.011250836
0.11874454 0.14151427 0.010682123
0.12461987 0.14694577 0.010677021
0.13645646 0.1441438 0.011811821
0.14601167 0.14358252 0.010630134
0.15302077 0.14513513 0.010572048
-0.15046173 0.15152118 0.011336977
-0.14640173 0.15361919 0.011081841
-0.13520125 0.15321735 0.01113317
-0.1269702 0.15298662 0.011016498
0.13521649 0.15360455 0.010610491
0.14445469 0.15358719 0.010680271
-0.081699617 -0.082064062 0.023715517
-0.077533007 -0.081756182 0.02540962
-0.060424332 -0.084772639 0.023442412
-0.053984843 -0.086253271 0.023571504
-0.047299951 -0.085127264 0.023493482
0.048854552 -0.083165146 0.028726332
0.054122448 -0.083571166 0.028459493
0.077912182 -0.081923716 0.024581771
0.080599561 -0.082290165 0.023738388
-0.08246538 -0.077735856 0.026686778
-0.078282662 -0.077191018 0.025313452
-0.061822075 -0.073738262 0.024605421
-0.054191235 -0.075189114 0.027621897
-0.045401119 -0.074019544 0.025265109
-0.035097547 -0.072171919 0.024849644
-0.023231123 -0.072267994 0.025720403
-0.014836285 -0.072628893 0.026236566
-0.0029621441 -0.072509967 0.024148893
0.0051144091 -0.072131328 0.024486171
0.015490568 -0.071842574 0.024549698
0.024315471 -0.072402373 0.026481766
0.04688568 -0.073176257 0.026595905
0.053740989 -0.073934749 0.026469747
0.067065597 -0.071240284 0.028107008
0.077455655 -0.077678427 0.025234554
0.081758969 -0.077146545 0.025426628
-0.072385415 -0.065311491 0.028515136
-0.064576939 -0.065046519 0.026465328
0.0048103794 -0.069844067 0.027807126
0.01282212 -0.069842249 0.028838214
0.028654967 -0.069830313 0.02906489
0.03435754 -0.069800965 0.023770364
0.04229575 -0.069824465 0.025412861
0.056826949 -0.066106759 0.025123771
0.06509582 -0.064454667 0.027423231
0.072012909 -0.065026887 0.027351914
-0.071913749 -0.054057367 0.024176873
-0.065212622 -0.057163395 0.024059625
0.066006809 -0.056906939 0.024282137
0.072148778 -0.055762313 0.025701759
-0.072947055 -0.045613945 0.024273127
0.072794355 -0.046874959 0.024721514
-0.072953343 -0.036466882 0.024879897
0.072785772 -0.034286186 0.025583275
-0.072966278 -0.025583219 0.023182116
0.072778583 -0.026113814 0.025410136
-0.072970092 -0.01383682 0.025830071
0.072764792 -0.01524293 0.023317754
-0.072983064 -0.0050118421 0.023337098
0.072759092 -0.0047199205 0.02468599
-0.072985083 0.0043242257 0.025896022
0.072749935 0.0059956312 0.024588745
-0.072996601 0.014436048 0.024522236
0.072742678 0.015069251 0.024726607
-0.073004745 0.024289032 0.024549173
0.072736122 0.025092216 0.025522886
-0.073008098 0.033737861 0.026552146
0.072725378 0.034469716 0.0242256
-0.073020883 0.045484744 0.025224319
0.072716303 0.044889126 0.024048841
-0.072696276 0.054730594 0.025702229
-0.061991092 0.058602668 0.024721211
0.063575216 0.058094241 0.024841778
0.072084442 0.05687847 0.027342573
-0.071865544 0.065264948 0.028730508
-0.065219611 0.064954296 0.02759085
-0.057736501 0.065116398 0.02448741
0.057135202 0.06595289 0.025139034
0.064605474 0.062757917 0.027631737
0.07158792 0.065825254 0.027201083
-0.082209565 0.078068234 0.024918227
-0.078640953 0.07754501 0.024820644
-0.062451471 0.072249912 0.028140686
-0.054781012 0.072339348 0.025028182
-0.042983364 0.073095672 0.024687715
-0.034249578 0.073100179 0.025265153
-0.025448473 0.073110491 0.024608213
-0.016424917 0.073109582 0.026396932
-0.0040207235 0.073129892 0.024225455
0.0047473512 0.073129505 0.025859827
0.015488111 0.073145591 0.024303056
0.024946297 0.073147953 0.025468139
0.035534564 0.073156558 0.025491852
0.046014849 0.073171899 0.024051871
0.053833354 0.072257355 0.022639185
0.065116055 0.073133484 0.028571434
0.07784652 0.077676304 0.024573015
0.082185879 0.078637831 0.024211157
-0.081445433 0.082581684 0.026160777
-0.078020833 0.082284033 0.02555874
0.078046091 0.082655303 0.026082342
0.082339138 0.081562161 0.024007559
-0.081615113 -0.082132414 0.034847818
-0.077763297 -0.081979282 0.034253977
0.049246375 -0.084656484 0.031706762
0.054881822 -0.082760654 0.031683341
0.07816039 -0.082024761 0.03472897
0.081966303 -0.081713483 0.035446081
-0.082234904 -0.077833563 0.035378329
-0.078157529 -0.077248454 0.034507748
-0.066143148 -0.071876116 0.031242348
-0.053257097 -0.072363392 0.033811789
