# .PCD v0.7 - Point Cloud Data file format
VERSION 0.7
FIELDS x y z
SIZE 4 4 4
TYPE F F F
COUNT 1 1 1
WIDTH 1335
HEIGHT 1
VIEWPOINT 0 0 0 1 0 0 0
POINTS 1335
DATA ascii
0.051809799 0.041629333 0.1047529
0.055306289 0.042974249 0.10475124
0.042691339 0.043364875 0.10441463
0.050814498 0.043082133 0.10476191
0.051285028 0.043499518 0.10476278
0.053551666 0.04328993 0.10475667
0.054269589 0.043204531 0.10475466
-0.020962059 0.044975225 0.10453116
0.0043894984 0.044964045 0.10474987
0.0056968387 0.044973612 0.10466383
0.022744056 0.044968609 0.10491036
0.025583522 0.044975959 0.10492329
0.048511419 0.044690844 0.10477464
0.049211446 0.044966284 0.10442815
0.051549159 0.044610262 0.10476735
0.054551981 0.044070899 0.10475805
-0.047806866 0.045762684 0.10441595
0.0039969794 0.045001104 0.10428955
0.014790534 0.045013767 0.10400006
0.015757537 0.045010086 0.10429259
0.048011556 0.045769166 0.10478082
0.050136782 0.045395657 0.10434134
-0.04636972 0.046582125 0.10499784
0.050496943 0.04653877 0.10477871
0.053758271 0.046404667 0.10477073
-0.052163322 0.047049381 0.10422356
0.0450227 0.047410857 0.10467992
0.050325155 0.047105562 0.10490062
0.051804546 0.047617674 0.1047808
-0.027416857 0.048939362 0.10496596
-0.02691553 0.048444781 0.10499597
0.021623332 0.048808414 0.10485455
0.024717357 0.04883454 0.1048477
0.045081429 0.048078798 0.10421284
0.046385746 0.048513416 0.10494354
0.051843662 0.04809697 0.10478299
0.052073307 0.048333731 0.10459729
-0.040935643 0.049045153 0.10499702
-0.038579542 0.049254611 0.10499266
-0.026593253 0.049255367 0.10496557
-0.022387896 0.049971595 0.10495941
-0.0026514845 0.049843729 0.10491421
-0.001837114 0.049775273 0.10491204
0.0024417359 0.049638398 0.10490175
0.011007391 0.049637727 0.1048824
0.015425771 0.049270399 0.10487071
0.017965715 0.049114864 0.10486425
0.032093063 0.049491726 0.10483409
0.035921272 0.049127307 0.10482375
0.051406384 0.049133442 0.10478877
0.054663584 0.049325332 0.10478233
-0.051475793 0.05090224 0.10411066
-0.046119656 0.050959092 0.10442862
-0.028996019 0.050308771 0.10497591
-0.018458121 0.050066177 0.10495096
-0.012710981 0.050417792 0.10493962
-0.00015361019 0.050629124 0.10491222
0.013748126 0.050068744 0.10487822
0.021552071 0.05013641 0.1048609
0.032958966 0.050783932 0.10483818
0.037752323 0.050841518 0.10482758
0.045634571 0.050028011 0.10480602
0.04709544 0.050834808 0.10449578
0.048142683 0.050998304 0.10480478
-0.049682111 0.0517314 0.10449594
-0.031293269 0.051054187 0.1049846
-0.021928303 0.051276587 0.10496445
-0.010495753 0.051309109 0.10493876
-0.00034810323 0.051464073 0.10491655
0.0096675009 0.051482402 0.10489402
0.051450208 0.051107641 0.10479789
0.053224925 0.051996447 0.10479805
-0.021485589 0.052400045 0.10496868
-0.012625193 0.052143387 0.10494746
0.014728417 0.052532315 0.10488748
0.024305046 0.052800622 0.10486706
0.047488794 0.052422751 0.10481288
0.052943245 0.052466564 0.10480089
-0.013570972 0.053503137 0.10495593
0.00071140879 0.053898796 0.10492549
0.0087817525 0.053430095 0.10490508
0.01264678 0.053987745 0.10489896
0.015194519 0.053079791 0.10488898
0.028701963 0.053226478 0.10485914
0.039726608 0.053562246 0.10483576
-0.028229171 0.054959711 0.10499582
-0.027824059 0.054396257 0.10499228
-0.018622294 0.054056562 0.10496992
-0.013299739 0.054111626 0.10495815
0.01361816 0.054701574 0.10490008
0.018003566 0.054004401 0.10488693
0.025377732 0.054015093 0.10487032
0.034930866 0.054614767 0.10485148
-0.02714722 0.055430278 0.10499556
-0.0094882008 0.055669423 0.10495679
-0.0064584012 0.055836584 0.10495072
0.016636647 0.055186056 0.10489551
0.02415894 0.055233531 0.10487872
0.045352165 0.055075634 0.10483006
0.048236422 0.055140801 0.10482387
-0.00829536 0.056208674 0.1049566
-0.0065003769 0.056618873 0.10495445
-0.0052290754 0.056376994 0.10495046
0.0049649407 0.056670856 0.10492879
0.038145412 0.056110159 0.10485116
-0.031765349 -0.057050124 0.10552981
-0.028969074 -0.057048924 0.10576782
-0.011619399 -0.057034068 0.10564332
-0.0042577265 -0.057029586 0.10598358
-0.0020063696 -0.057027243 0.10587891
0.0038792742 -0.057019535 0.10525966
0.005493613 -0.0570186 0.10534529
0.010065639 -0.057017513 0.10592157
0.036193818 -0.056993224 0.10533229
0.043196563 -0.056986324 0.10597984
0.04566133 -0.056733333 0.10576385
-0.044156335 -0.048193861 0.10555696
-0.042577691 -0.048647299 0.10522145
-0.041474719 -0.048729658 0.10544899
-0.015564034 -0.048706852 0.10512785
-0.0034096793 -0.048696883 0.10513452
0.00095709739 -0.048697121 0.1059571
0.0091835838 -0.048689872 0.1058545
0.010697559 -0.048685554 0.10519381
0.019752556 -0.048681565 0.1059377
0.020655315 -0.048680767 0.10592729
0.024088848 -0.048674341 0.1051528
0.028399136 -0.048673801 0.10579813
0.039620724 -0.048662294 0.10531075
0.050890423 -0.048454545 0.10503072
0.045055788 -0.047804661 0.10557345
-0.056473151 -0.04601682 0.1056574
-0.049194947 -0.046641435 0.10590948
0.04849878 -0.046450026 0.1051982
-0.027562872 -0.045147784 0.10525124
-0.0074955439 -0.045058083 0.10590968
-0.00029709004 -0.045069147 0.10572886
0.0017168303 -0.04511334 0.10520028
0.0062607611 -0.045057882 0.10576998
0.035075322 -0.045100182 0.10504331
0.040601429 -0.044645302 0.10520285
0.04287773 -0.043224253 0.10519893
0.048374176 -0.043689571 0.10594683
-0.056805588 -0.042327821 0.10507663
-0.043930341 -0.041709308 0.10560106
-0.056806378 -0.040451825 0.10541931
-0.048478574 -0.039732158 0.10560465
-0.048482392 -0.036246192 0.10520282
-0.044908222 -0.036613315 0.10535658
-0.048485033 -0.033110417 0.10519071
-0.048485268 -0.031328853 0.10574888
0.048673071 -0.030435324 0.10555645
-0.056815825 -0.029691454 0.10521017
-0.056815114 -0.028927965 0.10580604
0.048669484 -0.026858512 0.10529501
0.056995954 -0.025009524 0.10531839
-0.056819856 -0.022963304 0.10591015
0.056993794 -0.022564594 0.1052642
0.04510586 -0.02163139 0.1050976
0.048664521 -0.021326238 0.10514869
-0.044892881 -0.019511335 0.10559256
0.056991413 -0.01916144 0.10546429
-0.048498921 -0.016550303 0.10515456
0.045052905 -0.016927944 0.10558206
0.056988694 -0.016180722 0.1053605
0.056987032 -0.013573309 0.10558464
0.045025546 -0.011869853 0.10582425
-0.044960886 -0.0040384773 0.10506615
-0.056837406 -0.0032524446 0.1054177
0.048650194 -0.0036185167 0.10536744
-0.048509691 -0.0024539749 0.10559113
-0.056838796 -0.001185836 0.10556502
0.045075238 -0.0017797888 0.10531187
-0.048512742 0.0016086976 0.10574286
0.045044035 0.002679257 0.10555595
-0.044964492 0.0030152798 0.10507376
0.045060523 0.0053839721 0.10522354
-0.044948235 0.0079148728 0.10554395
-0.044944756 0.0091324085 0.10559015
0.056966461 0.010050301 0.10519616
-0.048522215 0.012938764 0.10572863
-0.044968221 0.012096702 0.10541394
0.048635669 0.014363324 0.10556639
-0.056852896 0.015207282 0.10536548
0.04507304 0.015164456 0.1051404
-0.048526008 0.016297586 0.10529535
-0.056855954 0.018423883 0.10519926
-0.048527144 0.018541992 0.10561939
-0.05685658 0.01905494 0.10515291
-0.044924933 0.021288609 0.10591635
0.045039222 0.022150408 0.10548407
0.045015238 0.023594063 0.10571531
-0.048535801 0.027722005 0.10518621
-0.056866337 0.033053607 0.1059942
-0.044962298 0.034961093 0.10574412
-0.044289596 0.041019566 0.10533932
-0.056875229 0.042202689 0.10543551
0.04283395 0.043101892 0.10530429
0.048194468 0.043932062 0.10597406
-0.05632633 0.04438455 0.10501007
-0.040906042 0.044193283 0.10588124
-0.032676555 0.044885058 0.10549086
-0.027687678 0.044936784 0.10502786
-0.017081229 0.044903964 0.10530577
-0.015188729 0.044854127 0.10574405
-0.0030413475 0.044911519 0.10522274
-0.00042302441 0.044878956 0.10563395
0.0027273269 0.04485701 0.10595369
0.011626977 0.044876508 0.1058269
0.015510567 0.044891082 0.10571799
0.027860243 0.044966999 0.10511025
0.034594998 0.044910412 0.10564476
-0.052269068 0.047723774 0.10501646
-0.050740175 0.048706923 0.10550814
-0.046397716 0.048933268 0.1059798
-0.040894829 0.048428737 0.10597545
-0.018858865 0.04844708 0.10592531
-0.0055753556 0.048461579 0.10515814
0.0039035778 0.048466321 0.10581438
0.0050179786 0.048467383 0.105782
0.01040947 0.04847122 0.10591064
0.023110893 0.048485573 0.10506833
0.029692687 0.048486795 0.10597017
0.034342699 0.048494637 0.10510499
0.042869855 0.048394352 0.10558238
-0.044481643 0.049461611 0.10500701
-0.043596644 0.049959335 0.10500727
-0.042591058 0.049262084 0.10500178
0.046566613 0.049359299 0.10594672
0.05072628 0.049143512 0.10557672
-0.05180306 0.050694108 0.10502926
-0.046333659 0.050831318 0.10501748
-0.042197 0.05094292 0.10500868
-0.041757289 0.050596431 0.10500607
-0.046772104 0.051382191 0.10502113
-0.041999772 0.051969122 0.10501301
-0.052290339 0.052583158 0.10503914
-0.039017163 0.05279642 0.10501012
-0.038033713 0.052842736 0.10500811
-0.037714217 0.052440982 0.10500553
-0.052099004 0.053205024 0.10504162
-0.048325639 0.053585056 0.10503483
-0.04786849 0.053414781 0.105033
-0.038476467 0.053400502 0.10501172
-0.036346741 0.053730533 0.10500844
-0.046310391 0.054997467 0.10503687
-0.045036405 0.05437579 0.10503112
-0.041314922 0.054812975 0.1050247
-0.039284632 0.05477374 0.10501993
-0.031539798 0.054981101 0.1050034
-0.041936263 0.055420678 0.10502893
-0.037110291 0.055756748 0.10501959
-0.031579394 0.055267874 0.10500482
-0.047001425 0.056143418 0.10587386
-0.042511843 0.056756526 0.10574929
-0.041705206 0.056756325 0.10593554
-0.0386962 0.056761198 0.10542075
-0.03305893 0.05641884 0.10501353
-0.025330514 0.056771949 0.1054734
-0.017073892 0.056776509 0.1059555
-0.016601395 0.056778699 0.10556757
-2.1861939e-05 0.056792594 0.10551398
0.010179503 0.056802861 0.10510882
0.024625024 0.056812927 0.10549999
0.025475712 0.056812957 0.10564329
0.028685709 0.056814905 0.10579313
0.031730711 0.056818042 0.10565665
0.040605698 0.056823824 0.10598014
-0.028111469 -0.057053097 0.10681751
-0.023311898 -0.057045572 0.10604845
-0.022423672 -0.057048023 0.10673589
0.0012036052 -0.057028167 0.1066484
0.0098814303 -0.057019435 0.10630524
0.024726668 -0.057009812 0.10686487
0.027404526 -0.057003602 0.10600396
0.028034674 -0.057006963 0.10683705
0.036764432 -0.056999832 0.10685378
-0.051471099 -0.05407729 0.10610419
0.046720508 -0.049670488 0.10659097
-0.033213943 -0.048726179 0.10615972
-0.028593697 -0.0487241 0.10652804
-0.023710657 -0.048720669 0.10665374
-0.00070513331 -0.04870066 0.10642313
0.0098079769 -0.048693746 0.10679726
0.013163671 -0.048688747 0.10631629
0.01856583 -0.048683308 0.10610293
0.022515908 -0.048679586 0.10600168
0.035876773 -0.048670884 0.10649449
-0.048874445 -0.046558507 0.10653311
0.049110167 -0.046482202 0.10639884
-0.032324068 -0.044954464 0.10663728
-0.0028233991 -0.044846989 0.10692001
0.0076483982 -0.04486724 0.10677426
0.029714026 -0.044841792 0.10675421
0.04868491 -0.041072473 0.10685015
-0.044792928 -0.037636712 0.10633879
0.044974238 -0.037716731 0.1062211
0.048679534 -0.03533354 0.10659869
-0.056809403 -0.034741707 0.10618745
-0.044773869 -0.034257092 0.10644384
0.057004601 -0.033348929 0.10607076
0.057004884 -0.032334313 0.10656759
-0.056811463 -0.031403661 0.1065084
-0.044826724 -0.031136485 0.10616958
0.048675392 -0.0317972 0.10607803
0.057003919 -0.031493504 0.1064513
-0.056812603 -0.030124407 0.10647586
0.044997625 -0.029288486 0.10612546
0.048673529 -0.028752701 0.10638025
-0.056814447 -0.02712952 0.10676616
-0.048485827 -0.027999114 0.10673589
-0.044709042 -0.027694738 0.10676152
0.057001282 -0.027828455 0.10663412
-0.056817092 -0.024476614 0.10657521
-0.056816828 -0.023697715 0.10697851
0.056996074 -0.021991307 0.1064784
0.056991741 -0.016785387 0.10647854
0.044854913 -0.015084757 0.10674627
0.056990445 -0.015386146 0.10642195
0.048661016 -0.013777804 0.1063892
0.056987919 -0.012020403 0.1065411
-0.044830501 -0.011254478 0.10637602
-0.044692755 -0.0087151704 0.10698035
-0.04850658 -0.0042513274 0.10631147
0.048654366 -0.0044582216 0.10689336
-0.056835182 -0.0030021579 0.10649072
-0.048508391 -0.002873986 0.10601778
-0.056838132 0.00086702366 0.10661362
-0.056841716 0.005422629 0.10670408
0.056968607 0.010804914 0.10642302
0.044947919 0.012016905 0.10639159
-0.04484313 0.014941474 0.10655247
-0.056851018 0.016151601 0.1065419
0.056962598 0.017008204 0.10605699
0.048632987 0.018929455 0.10606016
-0.048526764 0.020576425 0.1065399
0.048633814 0.020011703 0.10681964
-0.048527621 0.02196423 0.10667219
-0.048527606 0.022349045 0.10682371
-0.056856796 0.024160383 0.10693871
-0.056858692 0.025988247 0.10677519
-0.056860503 0.027031062 0.10635397
0.044978857 0.029134188 0.106078
0.04496181 0.030511038 0.10629345
0.044981971 0.031026663 0.10605538
0.056951515 0.0311877 0.10638272
-0.04853633 0.033179753 0.10696622
-0.044883847 0.033288088 0.10643287
0.056949124 0.033603869 0.10621531
0.044927433 0.036360327 0.10650672
0.04484925 0.037805498 0.10683446
-0.056869149 0.038505107 0.10677855
-0.044839945 0.038430758 0.10646084
0.048616782 0.039995242 0.10665391
0.044443976 0.040525302 0.10625409
0.056943759 0.040056366 0.1062202
0.043329634 0.042436764 0.10608157
-0.038824651 0.044667244 0.10673553
-0.031379443 0.04482583 0.10601289
-0.027211145 0.044795636 0.10628182
-0.025873577 0.044790506 0.1063951
-0.0090460479 0.044682268 0.10698067
0.0039565712 0.04468729 0.10697485
0.0078530498 0.044688217 0.10697544
0.011555128 0.044824008 0.10629047
0.01255348 0.044748306 0.10673754
0.018460322 0.044698954 0.10694382
0.032150645 0.044848125 0.10618275
0.036355119 0.044859048 0.10610769
0.038883179 0.044802684 0.10600753
0.040684305 0.044317819 0.10619265
-0.049723879 0.046542749 0.10602576
-0.04856592 0.046202682 0.10605176
0.04659744 0.046408355 0.10687453
-0.045320079 0.047321584 0.10690711
-0.035463147 0.048428662 0.10695167
-0.024863724 0.048439745 0.10644139
-0.021942036 0.048442751 0.10631157
-0.018759049 0.048444636 0.10646947
-0.013245664 0.048449866 0.10631907
-0.0099310968 0.048453145 0.10620044
-0.0065658279 0.048456077 0.10616449
0.028396003 0.048483245 0.10650516
0.038613766 0.048489496 0.10696609
0.05511516 0.049757551 0.10675599
-0.034002203 0.056757804 0.10698113
-0.020903042 0.056769904 0.1066979
0.00015684892 0.056789085 0.10629991
0.011120329 0.056797147 0.10650464
0.017538128 0.056802958 0.10638997
0.041509278 0.056822024 0.10652474
0.045831375 0.056508414 0.10653543
-0.043746915 -0.057001799 0.10720625
-0.041435104 -0.05706935 0.10795002
-0.038783893 -0.057063945 0.10725781
-0.024880845 -0.057055615 0.1079327
-0.016975999 -0.057045739 0.10721104
-0.013277553 -0.057044797 0.10766453
-0.0019725871 -0.057034574 0.10746785
0.016280361 -0.057020795 0.10773611
0.017295413 -0.057019476 0.10763074
0.035032004 -0.057005435 0.10775083
-0.043912861 -0.056989878 0.10743196
0.047360986 -0.05633029 0.10701628
0.048385039 -0.055918112 0.10702693
0.051120963 -0.054449983 0.10712542
0.053512894 -0.052276012 0.10773808
-0.049979348 -0.050362248 0.10799993
0.050140984 -0.050348185 0.10787784
-0.044039715 -0.048249237 0.10747725
-0.033082485 -0.048734229 0.10790799
-0.026939746 -0.04872654 0.10734449
-0.020640405 -0.04872011 0.1070765
-0.010788887 -0.048713952 0.10749631
-0.0011180749 -0.048707802 0.10788476
0.0066789952 -0.04869815 0.10718989
0.0091117853 -0.048697982 0.10758455
0.017714482 -0.04868985 0.10735863
0.030520763 -0.048678182 0.10711515
0.033197522 -0.048676085 0.10713825
-0.049506277 -0.046810176 0.1073958
-0.038987786 -0.044585682 0.10769777
-0.03388869 -0.044708949 0.10768099
-0.032579139 -0.044798285 0.10729693
-0.029732641 -0.044831734 0.10713955
-0.027739283 -0.04480055 0.10725948
-0.013994548 -0.044630412 0.10789718
0.013477697 -0.044656649 0.10762811
0.02142619 -0.044772632 0.10709345
0.030575557 -0.044664964 0.10749441
0.035682984 -0.044599921 0.10773907
0.039722003 -0.044466041 0.10721727
-0.041907988 -0.043257825 0.10769491
0.048374183 -0.043703873 0.10703512
0.057016019 -0.043089557 0.10753257
0.048686877 -0.041004989 0.10774489
-0.056802839 -0.039561469 0.10731633
-0.044298273 -0.039690882 0.10740422
-0.056804944 -0.037493415 0.107148
-0.05680532 -0.036230784 0.10744706
-0.048476525 -0.036010005 0.10788827
0.044602256 -0.034528621 0.10777555
0.048680671 -0.034769766 0.10730949
-0.048480302 -0.03351111 0.10714129
0.057006914 -0.031592734 0.10773601
-0.056812838 -0.026197672 0.10782289
-0.048485246 -0.026103757 0.10769366
0.048675358 -0.02684023 0.10789256
0.048673425 -0.025725778 0.1074505
-0.044487603 -0.023242079 0.10770258
-0.048487563 -0.022643343 0.10794762
-0.048490882 -0.020646252 0.10721875
-0.044532109 -0.019361278 0.10755175
-0.048493128 -0.01756981 0.1073608
0.04457657 -0.016990893 0.10790414
-0.05682312 -0.015678355 0.10715407
-0.048495717 -0.014385823 0.10739196
0.044678684 -0.012636768 0.10748386
-0.056825578 -0.011504338 0.10760419
-0.048500746 -0.0086967209 0.10726431
-0.05683025 -0.0065743541 0.10735672
0.048657186 -0.0065324618 0.10737203
0.044586677 -0.0055722073 0.10787604
-0.056831453 -0.0041424222 0.10771863
0.048654668 -0.0040874276 0.10716194
-0.056836199 0.00026135985 0.10724242
-0.048508298 0.0012506645 0.10759483
0.044569936 0.0018715826 0.10795497
-0.048511527 0.0040874267 0.10720658
-0.056840673 0.0056201532 0.10723852
-0.044470746 0.0052353255 0.1079999
0.056974925 0.005264882 0.10716511
-0.0568427 0.0075734444 0.10706291
0.044662319 0.010752533 0.10758079
0.056972176 0.010451162 0.10786201
0.048642203 0.012350665 0.10770585
0.056968711 0.012950281 0.1072562
-0.056847006 0.014113558 0.10756458
0.044769917 0.018611994 0.10714179
0.044662599 0.01955907 0.10759041
-0.048524491 0.021038568 0.10772008
0.044775296 0.024702895 0.10712682
-0.056859888 0.029295003 0.1074764
-0.044655718 0.029307162 0.10743687
0.048626095 0.029892951 0.10705003
0.044579454 0.031049492 0.1079511
0.044629831 0.032131314 0.10774238
0.048624896 0.032286622 0.10740031
-0.048536368 0.03506045 0.10764113
-0.048539229 0.037317313 0.10721542
0.048621163 0.037350845 0.10761748
-0.044753063 0.038005132 0.10704663
-0.02846281 0.044582993 0.10736068
-0.022012763 0.044459347 0.10786817
-0.020452369 0.044496078 0.10772131
-0.018568024 0.044629477 0.10718365
-0.04710719 0.0456753 0.10719313
-0.047034707 0.04680204 0.1071611
0.045215786 0.047511324 0.10750191
-0.043179847 0.048217013 0.10729738
-0.039408673 0.048421774 0.10773526
-0.03384167 0.048425671 0.10788079
-0.02770675 0.048431825 0.10764205
-0.016547143 0.048443057 0.10719872
-0.0085152891 0.048448846 0.10737415
-0.0054667564 0.048452239 0.10718422
0.004136174 0.048458301 0.10757801
0.007922506 0.048463576 0.10711402
0.012162085 0.048466522 0.10722946
0.01566053 0.048467543 0.10762897
0.018373206 0.048470918 0.10738356
0.022667609 0.048471689 0.10797615
0.0254426 0.048476364 0.10746319
0.029513478 0.04847822 0.10778293
-0.054913394 0.049891599 0.10792902
0.050334677 0.054713547 0.10705869
0.049752627 0.055069566 0.10705163
-0.046661086 0.05621586 0.10771134
-0.044316441 0.056642424 0.10771562
-0.042952623 0.056746311 0.10786954
-0.033518855 0.056754455 0.10778786
-0.029428078 0.056759499 0.10742702
-0.018536801 0.056769829 0.10713352
-0.0033157379 0.056778833 0.10788922
0.0040902719 0.056788877 0.10703988
0.0051043429 0.056788333 0.10733591
0.009465036 0.056792434 0.10722567
0.019923534 0.056801286 0.10717165
0.023244686 0.056803707 0.10723668
0.028491102 0.056808196 0.10719703
-0.020704346 -0.057054333 0.10839798
-0.01832908 -0.057051003 0.10810451
-0.015699942 -0.05704955 0.10825727
0.00049018039 -0.057027381 0.10857369
0.018844606 -0.057020936 0.10822231
-0.045784391 -0.056734782 0.10850598
-0.042714696 -0.056817893 0.10867237
-0.036515143 -0.05662648 0.10865924
-0.029515995 -0.056976754 0.10864177
-0.028040204 -0.056918342 0.10863872
-0.026554897 -0.056179076 0.10863879
-0.023303308 -0.056150798 0.10863157
-0.0051888064 -0.056235049 0.1085902
0.01477751 -0.056081519 0.10854581
0.015746972 -0.056725979 0.1085406
0.017767379 -0.056597397 0.10853663
0.01968516 -0.0567443 0.10853162
0.022657707 -0.05643934 0.10852632
0.030262467 -0.056532752 0.10850869
0.040744964 -0.056725979 0.1084841
0.044813521 -0.056572929 0.10847561
-0.047593649 -0.05533646 0.10869017
-0.023200054 -0.055131882 0.10863605
-0.022010069 -0.055489678 0.1086317
-0.0061209104 -0.055745747 0.10859459
-0.0020991713 -0.055001661 0.10858896
-0.001731712 -0.055570807 0.10858549
0.0018505052 -0.05595611 0.10857559
0.011331168 -0.05529201 0.10855728
0.01544093 -0.055523414 0.10854691
0.024262305 -0.055676192 0.10852626
0.03186626 -0.055706378 0.10850893
0.034569643 -0.055999521 0.10850145
0.03526498 -0.05526467 0.1085033
-0.03298296 -0.054522969 0.10866101
-0.031152025 -0.054825358 0.10865546
-0.019763561 -0.054764986 0.10862997
0.0076237894 -0.054293197 0.10857029
0.010288588 -0.054478761 0.10856339
0.027222153 -0.05450891 0.10852501
0.034537099 -0.054735988 0.10850742
0.03860392 -0.054894023 0.10849749
0.039407544 -0.054078106 0.10849948
0.05088836 -0.054277524 0.10847263
-0.046802282 -0.053320497 0.10869777
-0.045772996 -0.053471327 0.10869477
-0.037045777 -0.053699791 0.108674
-0.034413971 -0.053685527 0.10866811
-0.025299978 -0.053076439 0.10865034
-0.0094121397 -0.053361669 0.10861313
-0.007125081 -0.053813927 0.10860586
0.0011068578 -0.053969331 0.10858653
0.014916787 -0.053522784 0.10855739
0.016353853 -0.053072833 0.10855624
0.020181861 -0.053401567 0.10854606
0.024019642 -0.053211384 0.10853828
0.033622645 -0.053828634 0.10851372
0.035677243 -0.053177264 0.10851213
0.03771691 -0.053390823 0.10850652
0.049697172 -0.053238317 0.10848013
-0.051781088 -0.05255232 0.10871268
-0.047369424 -0.052067876 0.10871249
-0.045593247 -0.052583609 0.10869848
-0.042266056 -0.052037146 0.10869352
-0.038363826 -0.052081194 0.10868449
-0.023080017 -0.052363686 0.10864866
-0.018037256 -0.052176028 0.10863814
-0.010747268 -0.05217449 0.10862167
-0.0067182984 -0.052011013 0.10861333
0.0030111086 -0.052158549 0.10859066
0.0090468312 -0.052675031 0.10857461
0.032706346 -0.052776653 0.1085207
0.03742313 -0.052698921 0.1085104
0.040331531 -0.052619249 0.10850421
-0.052481197 -0.051185973 0.10872057
-0.049422573 -0.051345192 0.10879367
-0.047063969 -0.051795922 0.10870545
-0.034527596 -0.051878475 0.10867675
-0.02006934 -0.051826864 0.10864435
-0.019887 -0.051665336 0.10864469
-0.017498232 -0.051752314 0.1086389
-0.0016215473 -0.051102526 0.10860605
0.0084454259 -0.051993962 0.10857914
0.011532056 -0.05187811 0.1085727
0.01438958 -0.051122911 0.10856976
0.023016779 -0.051283367 0.10854951
0.036049008 -0.051163968 0.10852059
0.046832878 -0.051603809 0.10897531
0.04865275 -0.051307037 0.1084915
-0.050581187 -0.050393388 0.10871997
-0.040586423 -0.05055118 0.10869664
-0.025489818 -0.050726529 0.10866173
-0.0020377622 -0.050483044 0.10860988
0.0094268657 -0.050463825 0.10858405
0.010047552 -0.050081171 0.10858443
0.023257658 -0.050505459 0.10855259
0.045012247 -0.050793726 0.10850215
0.050084446 -0.050396699 0.10840254
0.05499965 -0.050247982 0.10839943
-0.054947708 -0.049799912 0.10873262
-0.046002902 -0.049033821 0.10871597
-0.020328693 -0.04982296 0.10865428
-0.019044584 -0.049680941 0.10865203
-0.016797975 -0.049416669 0.10864818
-0.015267916 -0.049655847 0.10864362
-0.011045297 -0.049059801 0.10863686
-0.0024487798 -0.049664255 0.10861462
0.0064012045 -0.049762752 0.10859416
0.0098571628 -0.049068019 0.10858957
0.022448704 -0.049126528 0.10856085
0.051396981 -0.049388822 0.10849417
-0.055014703 -0.04812948 0.10874049
-0.053152055 -0.048734602 0.10873352
-0.051933691 -0.048772026 0.10873061
-0.044441186 -0.048086766 0.10839529
-0.027206874 -0.048848666 0.10867435
-0.01651771 -0.048723809 0.10860053
-0.011405585 -0.048966274 0.10863811
-0.0089841485 -0.048716661 0.1083969
0.0048679248 -0.048991241 0.10860122
0.030500213 -0.0487126 0.10854457
0.031116266 -0.048681907 0.1080211
0.032045737 -0.048681293 0.10805424
0.040136762 -0.048675574 0.10825586
0.043020383 -0.048619565 0.1085167
0.05542174 -0.048328318 0.10849002
-0.054220811 -0.047437705 0.10874189
-0.045691852 -0.04734771 0.10848545
0.050914135 -0.047016319 0.10859489
0.05357198 -0.047966529 0.10849591
0.054800708 -0.047624156 0.10849472
0.056597076 -0.046329409 0.10802034
0.056568239 -0.045143239 0.10850232
-0.031628016 -0.044331487 0.10883176
-0.028940868 -0.044475377 0.10844164
-0.014906442 -0.044422142 0.10853521
-0.010741612 -0.044391662 0.10859604
-0.0073958216 -0.044326469 0.10874022
-0.0066439463 -0.044305161 0.10878882
-0.0038740747 -0.044373367 0.10861112
-0.0006313608 -0.044471525 0.10831112
0.002008582 -0.044536263 0.10811055
0.0059297495 -0.044326067 0.10868415
0.0098442044 -0.044513419 0.10814203
0.012251569 -0.044446621 0.10833195
0.013331482 -0.044304825 0.10870411
0.021016473 -0.044469059 0.10822251
0.027915571 -0.044414204 0.10835499
0.037142962 -0.044461992 0.10816693
0.048788808 -0.044615433 0.10852231
0.052805103 -0.044515148 0.10851373
0.055498347 -0.044968914 0.10850556
0.051988125 -0.043283593 0.10852129
0.054904081 -0.043552004 0.1085135
-0.055119809 -0.042520907 0.10876689
0.048591334 -0.042845309 0.10806917
0.054602925 -0.042163502 0.10852064
-0.055201668 -0.041160639 0.1087734
-0.048471175 -0.041022543 0.10840323
-0.04313609 -0.041654706 0.10824261
0.048688129 -0.041564818 0.1080918
0.05272653 -0.041569885 0.10852762
0.053214192 -0.041295245 0.10852779
0.056029856 -0.041018214 0.10852277
-0.056035321 -0.040752217 0.1087772
-0.052286308 -0.040199935 0.10877126
-0.048471414 -0.040002685 0.10867438
0.054051682 -0.040192269 0.10853105
-0.053723138 -0.039022502 0.10878
-0.04853012 -0.039051026 0.10876806
0.050091259 -0.039386392 0.1085437
0.054612461 -0.03888347 0.10853589
0.052198809 -0.037127234 0.10854948
-0.055097774 -0.036161095 0.10879643
-0.0518477 -0.036060657 0.10878954
0.054830492 -0.036061507 0.10854853
-0.053739846 -0.035814427 0.10879497
-0.048474919 -0.03564382 0.10873607
-0.055946052 -0.03396862 0.10880855
-0.0527464 -0.033995777 0.10880117
-0.049471371 -0.032433618 0.108801
0.05477732 -0.032107368 0.10856704
-0.054975092 -0.031904701 0.10881596
-0.044155221 -0.031694032 0.10872047
0.04874742 -0.03140787 0.10858388
-0.056808159 -0.02906638 0.10883123
-0.053614859 -0.029980451 0.10882182
-0.051566228 -0.029535959 0.10881926
-0.050813586 -0.029574288 0.10881733
0.051857557 -0.029351903 0.10858643
0.053827245 -0.029233743 0.10858256
-0.051889457 -0.028987141 0.10882251
0.051380917 -0.028978311 0.10858923
0.055303112 -0.028516691 0.10858258
-0.049077202 -0.027881391 0.10882132
0.053946674 -0.027123773 0.10859211
-0.056275573 -0.026240589 0.10884526
0.048675589 -0.026032435 0.10829163
0.05027476 -0.026052985 0.10860535
-0.049493805 -0.024014002 0.10884026
0.054104641 -0.024809022 0.10860253
-0.053802125 -0.02325351 0.10885356
0.049346663 -0.022904549 0.1086221
-0.052534886 -0.02089869 0.10886161
-0.049227901 -0.020889744 0.10885421
0.049716491 -0.020070022 0.10863448
0.050317351 -0.020607691 0.10863061
0.05328507 -0.02014897 0.10862606
0.056187257 -0.020951489 0.1086158
-0.056392204 -0.017013624 0.10888846
-0.051875331 -0.015241012 0.10888648
0.048843853 -0.015880255 0.10865596
0.051128983 -0.015452769 0.10865279
0.054470144 -0.015481113 0.10864513
0.044510074 -0.014257254 0.10811184
0.050358225 -0.014938853 0.10865692
0.054479104 -0.014898812 0.10864781
-0.050352506 -0.013942358 0.1088891
-0.044252574 -0.013521927 0.10857102
-0.052564099 -0.012458233 0.10890099
-0.049714193 -0.012114597 0.10889618
-0.044378124 -0.012637691 0.10820739
0.051774591 -0.01100814 0.10867202
0.056732319 -0.010361143 0.10866387
0.056989774 -0.0098157376 0.10816791
-0.051492825 -0.0088183135 0.10891554
-0.050402075 -0.008966133 0.10891239
0.05417423 -0.0085868416 0.10867789
0.056987531 -0.0074566198 0.10804565
0.044291303 -0.0065523563 0.10874797
-0.055372819 -0.0059625837 0.10893756
0.051806282 -0.0051668766 0.10869916
0.044414718 -0.0044631618 0.10841849
0.048658036 -0.004613562 0.10845034
-0.053829484 -0.0033053309 0.10894647
-0.048502646 -0.0032853633 0.10843179
0.050684579 -0.0034490598 0.10870969
-0.052724443 -0.0021120864 0.10894955
-0.049720213 -0.0021730538 0.10894249
0.051440485 -0.0023847902 0.10871293
0.055368893 0.00039576256 0.10871702
-0.056833807 0.0016504279 0.10880964
-0.055665005 0.0012766643 0.10897194
-0.052789841 0.0015623863 0.1089668
0.056345873 0.001394926 0.10871945
-0.054064684 0.0023664052 0.10897341
-0.044272993 0.0023923703 0.10862364
0.044432178 0.0026511559 0.10838188
-0.056836411 0.0034459166 0.10832159
-0.056529179 0.004098685 0.10898703
-0.053735055 0.0045313705 0.10898274
-0.048508864 0.0044414559 0.10853077
-0.056838043 0.0062918225 0.10865004
-0.050705489 0.0064716493 0.10898495
0.04434181 0.0069819437 0.10866163
0.051671334 0.0068138074 0.10875523
0.05697671 0.0067720739 0.10850589
-0.053811349 0.0078833681 0.10899851
-0.048512571 0.0082271798 0.10828273
0.051256813 0.010659466 0.10877407
0.055338718 0.010439839 0.10876383
0.051204771 0.011839291 0.10877967
0.054710023 0.011916554 0.10877211
0.04423631 0.012193152 0.10893081
0.048643466 0.012311532 0.10825263
0.056972027 0.012246558 0.10845643
0.051055945 0.013030017 0.10878554
0.052327991 0.013337486 0.10878409
-0.056845207 0.014867662 0.10865336
0.05068757 0.014641675 0.10879388
0.052919749 0.015781812 0.10879414
0.053231463 0.016782872 0.10879809
-0.05684714 0.017496847 0.10877167
0.04981298 0.01759815 0.10880961
-0.056849919 0.01977947 0.10838135
0.044319242 0.020699747 0.10875322
0.055052053 0.020449942 0.10881107
0.049521148 0.02228649 0.10883208
0.053584598 0.022936506 0.10882596
0.055446684 0.023703776 0.10882531
0.050734885 0.024873082 0.10884139
0.053836361 0.024967432 0.10883484
0.053154938 0.02517684 0.10883735
0.055425733 0.025303168 0.10883281
0.048822492 0.026112963 0.10885146
0.052779712 0.026745146 0.10884549
0.048651718 0.027387381 0.10885778
0.056798588 0.027173277 0.10883842
0.054334059 0.029470123 0.10885467
0.056269694 0.02925376 0.10884929
-0.044398975 0.031348336 0.10845742
0.05583483 0.031769883 0.10886198
0.056956563 0.031603474 0.10877065
-0.048531473 0.032748058 0.10895973
0.052620336 0.032020833 0.10887042
0.048624441 0.034501199 0.10801801
0.056861743 0.03454297 0.10887256
0.049914718 0.035553362 0.10889293
0.051859815 0.035363864 0.1088877
0.056599408 0.036548875 0.10863526
0.053934261 0.037539233 0.10889313
0.054542568 0.037437666 0.10889128
0.044327833 0.038457386 0.10854936
0.0564996 0.038741499 0.10889292
-0.043721959 0.040231373 0.10886595
-0.042146187 0.04268736 0.10835399
-0.056824286 0.043413058 0.10886304
-0.041498583 0.043305971 0.10800543
0.054038543 0.04346779 0.10892048
0.055377927 0.043459542 0.10891742
-0.03275729 0.04436516 0.10823729
-0.020986052 0.044143528 0.10892509
-0.0094833681 0.044258676 0.10859071
-0.006855322 0.044331871 0.10837735
0.0027469604 0.044175077 0.10883727
0.011324206 0.044352077 0.10832159
0.021670464 0.044313148 0.10843722
0.032907236 0.044343837 0.10834959
0.034503888 0.044409003 0.10813515
0.055934645 0.044519812 0.10892108
0.047491156 0.045298848 0.10869174
0.055432737 0.045230798 0.10892552
-0.049918465 0.046671279 0.10842317
0.04702539 0.046950985 0.1082629
0.048215676 0.046306632 0.10860956
0.053138435 0.046147566 0.108935
0.055489972 0.046300426 0.10893038
-0.046326801 0.048440523 0.10877446
-0.03971852 0.048418503 0.10838393
-0.037800066 0.048418742 0.10867101
-0.033032026 0.04842297 0.10860399
-0.0308058 0.048423294 0.10892818
-0.028878098 0.048426278 0.10862729
-0.018172562 0.048437431 0.10812192
-0.017757181 0.048436493 0.10839693
-0.0032412552 0.048449527 0.10815943
0.022962445 0.048471145 0.1081455
0.025852436 0.048470616 0.10877015
-0.05048364 0.049487043 0.10880272
0.038669355 0.049527392 0.10898342
0.043363135 0.049039502 0.10897054
0.046696857 0.049606819 0.10887477
0.045336019 0.050777562 0.10897425
0.047121171 0.050989661 0.10897116
0.053560592 0.050564777 0.10895467
0.054522976 0.05072061 0.10833761
-0.053473234 0.051893108 0.10863619
0.036326364 0.051365159 0.10899733
0.040302005 0.051427852 0.10898864
0.042277496 0.051279191 0.10898349
0.047046889 0.051364671 0.10897308
0.049354363 0.05181586 0.1089699
0.051990516 0.051374219 0.1089619
0.042707473 0.052632373 0.10898879
0.044209905 0.052354839 0.10898411
0.048090715 0.052771911 0.10897723
0.03994783 0.053466357 0.10899889
0.0463854 0.053539895 0.10898465
0.0504799 0.054620069 0.10846603
-0.049641848 0.055016443 0.10839455
0.04715579 0.055234693 0.10899081
-0.035070568 0.056748759 0.10873862
-0.020971207 0.056762189 0.10834544
-0.01834482 0.056765661 0.10806372
-0.0085215699 0.056773283 0.1081615
-0.0062943101 0.056771781 0.10887954
-0.0039229793 0.056777664 0.10803361
-0.00073529372 0.056779359 0.10823346
0.018766303 0.05679426 0.10847323
0.042796433 0.056813441 0.10859148
0.043299168 0.056796387 0.10820755
0.047169916 0.056181964 0.10805695
-0.050623655 -0.051477894 0.10999793
-0.045418825 -0.051170174 0.10983436
0.048852384 -0.051443044 0.10948317
0.049717251 -0.051246054 0.10911808
-0.050278395 -0.050839789 0.10951608
-0.045089789 -0.050002433 0.10973786
0.052106649 -0.049494594 0.10920437
-0.050851952 -0.04736587 0.10998069
-0.046221256 -0.047128707 0.10995982
-0.049345244 -0.046135496 0.10985804
-0.045640059 -0.046497174 0.10947302
0.046773449 -0.046676226 0.10996342
0.05052653 -0.046601031 0.10974938
0.049673982 -0.045118861 0.10954031
0.050385185 -0.045619242 0.10952684
-0.021712076 -0.044046246 0.1094828
-0.015285119 -0.044008616 0.10954677
-0.011680718 -0.044090148 0.10933311
-0.0090778703 -0.044146214 0.10918566
-0.0084387586 -0.04403092 0.10946324
0.015013052 -0.04412543 0.10913306
0.027770992 -0.044017531 0.10934078
-0.040667135 -0.043351274 0.1092273
-0.038367853 -0.043977972 0.1094882
-0.029460039 -0.043945707 0.1097604
-0.014183332 -0.043946877 0.10969215
-0.0057865307 -0.043912351 0.1097336
-0.0043611247 -0.043906901 0.1097386
0.032367453 -0.043874826 0.10965863
0.037401862 -0.04383925 0.10970792
0.04229217 -0.041836612 0.10950539
0.043649007 -0.038924366 0.10976537
-0.043958373 -0.025950432 0.1092279
0.043839753 -0.024507552 0.10976922
-0.043858647 -0.02327149 0.10948345
0.043801982 -0.019691586 0.1098566
0.04400301 -0.019996319 0.10940833
0.044077009 -0.015615588 0.10924131
0.044125378 -0.011574934 0.1091353
-0.044100381 -0.0050612167 0.10902759
0.043824434 -0.0055487975 0.10985697
0.043860331 -0.0036384799 0.10979389
0.044134688 -0.0014377292 0.10913987
-0.043838028 0.0031211041 0.10970738
-0.056057341 0.0084445961 0.10900619
-0.053721517 0.0084706796 0.10900104
-0.052701302 0.0089095142 0.10900079
-0.056584291 0.0094188778 0.10901192
0.043891601 0.0097223772 0.10975671
-0.049517002 0.010518604 0.10900109
-0.054908965 0.011752823 0.109019
-0.051271249 0.011018828 0.10900739
-0.056081146 0.01211163 0.10902331
-0.054648746 0.012257304 0.10902074
-0.051829457 0.012489963 0.10901549
-0.049796999 0.012557293 0.10901122
0.043884851 0.012982183 0.10978171
0.044071343 0.012467063 0.10932997
-0.056059785 0.013437573 0.10902943
-0.04992988 0.013854411 0.10901756
-0.048759732 0.013478792 0.10901317
-0.056229848 0.015738059 0.10904053
-0.049920395 0.015876334 0.10902695
-0.054735746 0.016760603 0.10904191
-0.0516125 0.016780773 0.10903496
-0.050897673 0.016776817 0.10903334
-0.048553724 0.017185787 0.10902996
-0.056130882 0.018194491 0.10905175
-0.053317226 0.019866766 0.10905315
-0.054983925 0.020729583 0.10906095
-0.052014485 0.020725111 0.10905422
-0.055293672 0.021940561 0.10906729
-0.051270701 0.021131968 0.10905444
-0.048880421 0.021439414 0.10905048
0.043911017 0.021172209 0.10974038
-0.056005977 0.022635235 0.10907213
-0.050627824 0.022045463 0.10905725
0.043948151 0.0226839 0.10965475
-0.056069978 0.023361467 0.10907566
-0.051296599 0.023354666 0.10906485
-0.049104635 0.025940042 0.10907193
-0.055716179 0.027487498 0.10909407
-0.04402123 0.027374476 0.10943113
-0.055742424 0.028642112 0.10909951
-0.052476689 0.028179972 0.10908996
-0.054515772 0.029342934 0.1091
-0.05116434 0.030317305 0.10909693
-0.052578751 0.03203243 0.10910812
0.044214901 0.033141691 0.10903843
-0.056861471 0.035400908 0.10905641
-0.054124892 0.035529539 0.10912791
-0.052105956 0.035979245 0.10912544
-0.043946452 0.035205312 0.1096613
-0.055226896 0.037874423 0.10914131
-0.050134715 0.037167259 0.10912648
-0.050329261 0.038663134 0.10913389
0.043825638 0.038193405 0.1098025
-0.054089207 0.039102957 0.10914446
-0.053761311 0.040369526 0.10914962
-0.052280527 0.041250061 0.10915036
-0.050994102 0.041083321 0.10914668
-0.055238638 0.042953499 0.109165
-0.049210306 0.042128295 0.10914747
-0.051178586 0.043788664 0.10915969
-0.040329382 0.04325787 0.10952073
-0.039568264 0.043692976 0.10925075
-0.028999506 0.043711018 0.10996317
-0.024381831 0.043971464 0.10934488
0.0046636714 0.043926716 0.10944273
0.010247763 0.043862086 0.10959424
0.019774824 0.043725971 0.10991398
0.034410551 0.043877665 0.10955061
0.038857207 0.043984897 0.10901886
0.039745435 0.043553177 0.10944622
-0.052561879 0.044473097 0.10916601
-0.018851038 0.0440479 0.10916227
0.0011880416 0.044009909 0.10924668
0.04823073 0.04451308 0.10988296
-0.056349572 0.045097485 0.10917751
-0.048037976 0.045558292 0.10916085
0.047450401 0.045064598 0.10909247
-0.046178363 0.04697495 0.10922612
-0.052367661 0.047155559 0.1091781
-0.051262256 0.047897127 0.10976599
-0.040889286 0.048414227 0.10909624
-0.037122317 0.04846514 0.10914975
0.0058989027 0.04858214 0.10905309
0.0078218132 0.04867471 0.10904918
0.029635567 0.048926607 0.10900106
0.051378056 0.048256569 0.10962687
-0.046538137 0.049354818 0.10917516
-0.045846622 0.04906119 0.10972471
-0.035082497 0.049751721 0.10915112
-0.023647249 0.049276203 0.10912309
-0.020542769 0.04990539 0.109119
-0.018018022 0.049022619 0.10910918
-0.054609787 0.050378658 0.10904945
-0.049562503 0.050381929 0.10918678
-0.047222305 0.050470039 0.10918185
-0.046401184 0.050154716 0.10970852
-0.045304209 0.050368741 0.10981213
-0.043054122 0.050954688 0.10917468
-0.02755045 0.050946549 0.10913967
-0.02590574 0.050407749 0.10913344
-0.024044858 0.050990265 0.10913195
-0.020198779 0.050209694 0.10911963
-0.013178417 0.050084669 0.10910319
-0.0072204764 0.050761826 0.10909288
-0.0032293189 0.050126269 0.10908091
0.011076461 0.050398421 0.10904984
0.018812157 0.050313454 0.10903197
0.026722487 0.050948434 0.10901705
0.032258078 0.050959755 0.10900457
0.046349328 0.050083917 0.10928883
-0.040780894 0.051598836 0.1091726
-0.032787308 0.05182042 0.10915557
-0.021651683 0.051554155 0.10912916
-0.01267128 0.051341787 0.10910789
-0.0071150437 0.051731471 0.10909715
0.00054432364 0.051784337 0.10908009
0.017932493 0.051774174 0.10904075
0.018221876 0.051146552 0.10903718
0.046414889 0.051289771 0.10961214
0.047587097 0.051434349 0.10925659
0.050797109 0.051194135 0.10956995
-0.045566082 0.052595466 0.10918806
-0.034535408 0.052736096 0.10916378
-0.024664644 0.05278571 0.1091417
-0.022610407 0.052705243 0.10913669
-0.019826047 0.052159768 0.10912786
-0.013909512 0.052742708 0.1091172
-0.012559794 0.052301709 0.10911211
-5.9640755e-05 0.052030027 0.10908259
0.00074187538 0.052427322 0.10908263
0.0035436843 0.052348938 0.10907593
0.016017772 0.052343957 0.10904773
0.030624984 0.052645713 0.10901617
-0.05080248 0.053874031 0.10920575
-0.0368472 0.053943779 0.10917462
-0.012962258 0.05393979 0.10912063
0.0064935344 0.053755313 0.10907581
0.011015548 0.053764597 0.10906564
0.013266802 0.053554229 0.10905957
0.022871327 0.053970128 0.10903983
0.027856041 0.053405382 0.10902594
0.028730033 0.053655259 0.10902512
0.03357242 0.053414427 0.10901306
-0.037396602 0.054666579 0.10917923
-0.03686896 0.054406509 0.10917681
-0.035988566 0.054826852 0.10917678
-0.031695183 0.054336615 0.1091648
-0.030787125 0.054380696 0.10916296
-0.029550811 0.054492846 0.10916068
-0.019263819 0.054743141 0.10913862
-0.012558052 0.054766785 0.10912357
-0.011453062 0.054258481 0.1091187
0.010983916 0.054928053 0.10907111
0.023869498 0.054766774 0.10904126
0.02554699 0.05436898 0.10903563
0.026218824 0.054119479 0.10903295
0.034441289 0.054860096 0.1090178
0.038482562 0.054525577 0.10900712
-0.046299726 0.055658989 0.10920396
-0.041915186 0.055928711 0.10919531
-0.039318088 0.055369265 0.10918684
-0.032286402 0.055143856 0.1091699
-0.027296163 0.055852309 0.10916192
-0.026196839 0.055412449 0.10915738
-0.020941071 0.055395171 0.10914543
-0.019228999 0.055911593 0.10914396
-0.010171452 0.055782735 0.1091229
0.011482023 0.055004653 0.10907036
0.019024983 0.055825479 0.10905712
0.021185972 0.055724904 0.10905177
0.023417089 0.055221193 0.1090444
0.026683182 0.055077005 0.10903633
0.037948962 0.055936415 0.10901486
-0.045755565 0.056061417 0.10920464
-0.043625578 0.056391962 0.10920135
-0.042331651 0.056532189 0.10919905
-0.031764612 0.056750223 0.10900855
-0.020674385 0.056126859 0.10914823
-0.011064488 0.056767143 0.10903195
-0.0073212106 0.056071624 0.1091178
-0.0063803308 0.056595676 0.10911811
-0.0012717097 0.056007765 0.10910383
0.0063320808 0.056353398 0.10908826
0.0077089593 0.05651233 0.10908589
0.010456302 0.056784973 0.109003
0.024944089 0.056229446 0.10904562
0.025723573 0.056029044 0.10904293
0.030056151 0.056475129 0.1090352
0.035437968 0.05620056 0.10902175
0.036597989 0.056751106 0.10902169
0.042819936 0.056572255 0.10900679
0.047510289 -0.052085403 0.11058417
0.051159173 -0.051360779 0.11001734
-0.045128629 -0.050452039 0.11031359
0.045957915 -0.048290163 0.11060888
0.052198227 -0.048523247 0.11082029
0.04624939 -0.047390107 0.11090146
0.051223837 -0.047529735 0.11069342
-0.045316473 -0.046726771 0.11009216
0.05185803 -0.04665906 0.11066465
-0.047370464 -0.045282673 0.11049862
0.047678247 -0.045329891 0.1108896
-0.04802686 -0.044820767 0.1104938
-0.020481527 -0.043302473 0.11093653
-0.0090297582 -0.043699786 0.11015695
-0.0086849127 -0.043385871 0.11075929
0.0021516848 -0.043690294 0.11013206
0.0066069663 -0.043732136 0.11003397
0.020711929 -0.043509908 0.11040893
0.038369421 -0.04349811 0.11021322
-0.042131394 -0.041413277 0.11019981
0.041140005 -0.041985143 0.1106954
-0.043186408 -0.034186613 0.11077549
0.043678921 -0.028548051 0.11006584
-0.043455895 -0.015558105 0.11037926
0.043702882 -0.013591744 0.11006574
-0.043525182 -0.011998548 0.11026976
-0.043359924 0.0011640876 0.11066565
0.043755319 0.0014474783 0.11001127
-0.043251805 0.016934987 0.1109692
0.043435439 0.027134687 0.11070481
-0.043467715 0.034393802 0.1106676
-0.043281093 0.03743916 0.11099774
-0.042113878 0.041568525 0.11011014
-0.041138913 0.041875191 0.11094221
-0.02477056 0.043546367 0.11031286
-0.019920383 0.043585554 0.11023553
-0.016310517 0.043243892 0.11087848
-0.0091885934 0.043408528 0.11056267
-0.0026926436 0.04354547 0.1102995
0.017323751 0.04345078 0.11046477
-0.049478471 0.044816785 0.11089659
-0.046710566 0.045426935 0.11018827
0.048547734 0.04571788 0.11025472
0.050401762 0.045483075 0.11054224
-0.050806593 0.046805706 0.11019464
0.046614952 0.046561245 0.11015943
0.050289951 0.046278447 0.11021426
-0.052148428 0.047022849 0.11065982
-0.052023694 0.048421733 0.11032466
-0.051292311 0.048093628 0.11031815
-0.044950329 0.049578108 0.11089949
-0.049546409 0.051757209 0.11099671
0.049469911 0.051116277 0.11066394
-0.048537634 -0.051528387 0.11158133
0.046197783 -0.051166184 0.11199807
-0.050566029 -0.050554883 0.11168495
-0.046701483 -0.050902922 0.11196049
-0.046202846 -0.046107415 0.11151499
0.046185963 -0.04602322 0.11118118
0.046325833 -0.045959942 0.11145317
-0.037845753 -0.043004721 0.11131579
-0.026350744 -0.043202009 0.11111999
0.010485606 -0.043160997 0.1110535
-0.0023917621 -0.042923652 0.1114834
0.012162901 -0.04263518 0.11183302
0.01884906 -0.042858735 0.11151122
0.031365506 -0.042853165 0.11147572
0.034651443 -0.042714886 0.11165052
0.039539881 -0.041955855 0.11182113
-0.042819604 -0.03722189 0.11135536
0.043065086 -0.027866591 0.11115743
-0.042698506 -0.026805455 0.11161017
-0.042611338 -0.011841937 0.1118302
0.04255008 -0.010747135 0.11196706
-0.042664029 -0.0062737251 0.11178753
0.042931162 -0.0053345636 0.11144774
-0.042663366 -0.0037335362 0.11180374
0.043109007 -0.0033527818 0.11116861
-0.042771965 0.00032438803 0.11165518
-0.042559292 0.003340276 0.11198609
0.042585425 0.0031313077 0.11196938
-0.043006804 0.011549164 0.11134852
-0.042909354 0.013301563 0.11151403
-0.043161996 0.015265386 0.11112377
-0.042763691 0.019355128 0.11178191
-0.042763229 0.026199576 0.11182348
0.043214928 0.031320129 0.11111391
0.042090137 0.039616309 0.11179513
0.042195074 0.040377941 0.11117331
-0.040563427 0.041909676 0.11134579
-0.012693772 0.042664018 0.11183892
-0.00014299527 0.042618014 0.11189996
0.0053952336 0.042672157 0.11180909
0.016526332 0.042812608 0.11157642
-0.018749069 0.043160453 0.11103772
-0.0027262773 0.043007828 0.11128552
0.0067211883 0.043012474 0.11126934
-0.050006382 0.045186117 0.11159868
0.049779728 0.045957707 0.11148859
0.051228464 0.045858748 0.11185452
-0.045231529 0.046425268 0.11162782
0.045910262 0.04614098 0.11149138
0.050688159 0.046639822 0.11150865
0.051911816 0.046319962 0.11182161
-0.045036629 0.048605584 0.11129015
0.051347941 0.048009284 0.11177278
-0.044954341 0.049508356 0.11174145
-0.051852483 0.050286777 0.11171301
-0.047289796 0.050874025 0.11113471
-0.046921663 0.050650403 0.11164765
0.04539907 0.050809726 0.11122593
-0.048087332 0.05112426 0.11198744
0.047397844 0.051736295 0.11120389
0.050479397 0.051412292 0.11133845
-0.048868306 -0.051505856 0.11261825
0.050711736 -0.051581383 0.11233795
0.051088825 -0.051406305 0.11228406
-0.052042704 -0.049914941 0.11239481
-0.045689382 -0.048729122 0.1122775
0.052307874 -0.04735709 0.11264931
-0.051414069 -0.04631472 0.11248147
-0.046337981 -0.046988539 0.11231952
0.046595324 -0.046900697 0.11278354
0.052223597 -0.046921261 0.1122883
-0.033726323 -0.042441741 0.11224662
-0.026621893 -0.042342138 0.11235601
-0.023069732 -0.042538904 0.11208063
-0.017874908 -0.042019233 0.11275786
0.0074094012 -0.042026207 0.11266422
0.021445116 -0.042170778 0.11242339
0.025653506 -0.042076312 0.11253566
0.029141661 -0.042152323 0.11242215
-0.013584108 -0.041904248 0.11287327
0.016481051 -0.041749138 0.11293953
0.041992128 -0.039025787 0.11208214
-0.042117078 -0.028797194 0.11238501
0.041904971 -0.02663891 0.11275687
-0.042178199 -0.010681968 0.11240841
0.042333603 -0.01046177 0.11225643
-0.042161699 0.0078271804 0.11253649
0.042551808 0.010166342 0.11203922
0.042557344 0.015361851 0.11205033
0.042345122 0.01760231 0.11234103
-0.042477418 0.020175409 0.11219082
-0.04210965 0.022445226 0.11268913
-0.042571105 0.034693271 0.11215058
0.04221236 0.035359792 0.1125811
0.042140599 0.038136333 0.11243094
-0.026550308 0.041959759 0.11280327
-0.0088747293 0.04197076 0.11276826
-0.0070024356 0.041804209 0.11298478
-0.034151096 0.04203105 0.11271851
-0.02455201 0.042411759 0.11220744
-0.012496687 0.042026747 0.11269896
-0.011432653 0.042019926 0.11270668
-0.008877865 0.042095587 0.11260436
0.0026237899 0.042219635 0.11242811
0.018398147 0.042450413 0.11210681
0.035760067 0.042150263 0.1124807
0.037022311 0.04241816 0.11212102
-0.045706335 0.045879446 0.11245795
0.048283637 0.045734026 0.11244709
0.051339094 0.045906447 0.11248221
0.045488201 0.046434857 0.11250401
-0.051019356 0.051064901 0.11267759
-0.050629728 -0.051484689 0.11360747
-0.048600085 -0.051534869 0.11323982
-0.046049036 -0.051483981 0.11364004
0.049585491 -0.051312909 0.11311382
0.05160943 -0.051173624 0.11379035
0.046115242 -0.049661942 0.11393404
-0.051814429 -0.047393881 0.11310789
-0.046824448 -0.046527006 0.11388715
-0.04588794 -0.046334341 0.11325702
0.046741828 -0.046738602 0.1136039
-0.026252363 -0.041480362 0.11338776
-0.019221285 -0.04109519 0.11372551
-0.0086294748 -0.041341987 0.11344174
-0.0045559965 -0.041328151 0.11343683
0.0031876036 -0.041053269 0.11370554
0.012240415 -0.041073188 0.11367336
0.014170894 -0.041642889 0.11305165
-0.038877487 -0.040458113 0.11357693
0.0062426254 -0.040890384 0.11386734
0.012603051 -0.040945504 0.11379524
0.029370191 -0.040914584 0.11377367
0.030389696 -0.040945366 0.11374108
0.038286671 -0.04014352 0.11399588
0.041491132 -0.03614971 0.11318371
0.041393247 -0.035607241 0.1132951
0.040792067 -0.031654391 0.1138847
-0.041583259 -0.026513785 0.11306655
-0.041475676 -0.010077307 0.11327717
0.041407496 -0.0096167177 0.11335208
0.041506723 -0.0036359383 0.1132722
0.041545682 0.0028641829 0.11325108
-0.041027345 0.0033722771 0.11378023
-0.041382387 0.0074356105 0.11345397
